ncols 65
nrows 65
xllcorner 0
yllcorner 0
cellsize 1
-1 -1 -1 -1 -1 -1 -1 -1 -1 -1 -1 -1 -1 -1 -1 -1 -1 -1 -1 -1 -1 -1 -1 -1 -1 -1 -1 -1 -1 -1 -1 -1 -1 -1 -1 -1 -1 -1 -1 -1 -1 -1 -1 -1 -1 -1 -1 -1 -1 -1 -1 -1 -1 -1 -1 -1 -1 -1 -1 -1 -1 -1 -1 -1 -1 
-1 -0.727298 -1.02233 -1.32658 -1.34236 -1.10957 -0.785892 -0.406622 0.291036 1.1108 1.81855 2.36704 2.3235 1.71856 0.701997 -0.430467 -0.737925 0.217915 1.51338 2.01896 1.5792 1.16162 0.768517 0.424791 0.00645496 -0.188693 0.111806 0.65598 0.536658 -0.0421161 -0.512462 -0.671391 -0.91432 -1.0651 -1.04504 -0.872187 -0.528177 0.137276 0.516252 0.249174 -0.393826 -0.664833 -0.383624 0.16587 0.759152 1.18412 1.04515 0.447715 -0.139659 -0.425396 -0.479468 -0.590224 -0.459674 -0.294461 -0.161606 -0.11963 -0.0824017 -0.0430023 0.0533717 -0.112029 -0.623085 -0.972794 -0.768967 -0.536695 -1 
-1 -0.931987 -1.50621 -1.98025 -2.09381 -1.5217 -0.729144 0.117703 1.18893 2.43786 4.01122 5.22045 5.27137 4.08036 1.89287 -0.337108 -1.08782 0.472565 2.91215 4.17575 4.01781 3.58959 2.47276 1.63955 0.842055 0.698333 0.90865 1.56681 1.60206 1.11312 0.125726 -0.202866 -0.787131 -0.985914 -1.09715 -0.900264 -0.475406 0.356413 0.816863 0.44242 -0.284038 -0.220542 0.304422 1.32235 2.03969 2.46317 2.07781 1.04684 0.0882392 -0.455792 -0.410616 -0.55349 -0.149523 -0.00479554 0.364841 0.258048 0.336394 0.369455 0.430368 0.0137294 -0.616849 -1.06124 -0.82042 -0.595625 -1 
-1 -1.17601 -1.88991 -2.58291 -2.59175 -1.89205 -0.618109 0.653888 1.98723 3.6567 5.83977 7.91988 8.0951 6.33937 3.04125 -0.373258 -1.62852 -0.075711 3.13494 5.51354 6.33533 5.98491 4.46062 2.85928 2.02623 1.87947 2.15334 2.75984 3.06927 2.56143 1.42271 0.50073 -0.2357 -0.746787 -0.841135 -0.871469 -0.656598 -0.0648855 0.282581 0.0410746 -0.0579366 0.464525 1.48544 2.7048 3.38275 3.33741 2.46486 1.20036 0.0133957 -0.537338 -0.529814 -0.55282 -0.256237 0.137667 0.414859 0.574797 0.678974 0.584611 0.329813 -0.161113 -0.770939 -1.07586 -0.887901 -0.683891 -1 
-1 -1.38002 -2.15519 -2.73389 -2.71167 -1.79004 -0.162661 1.3102 2.8864 4.5747 6.82945 8.95312 9.1665 7.00673 3.18366 -0.800344 -2.58306 -1.65945 1.54212 4.71354 6.50784 6.41699 4.76034 3.34489 2.7683 2.99705 3.5471 4.0511 3.9128 3.14792 1.80341 0.751596 -0.0695735 -0.461103 -0.528066 -0.60837 -0.552507 -0.434062 -0.211456 -0.182509 0.00294444 0.620759 1.91597 3.31876 3.7124 3.22512 2.06714 1.03593 0.0168702 -0.5338 -0.418654 -0.384079 0.0245962 0.245072 0.615804 0.82493 0.864408 0.706059 0.213715 -0.297751 -0.660655 -0.902342 -0.640917 -0.579754 -1 
-1 -1.59921 -2.22605 -2.40526 -1.93218 -1.03983 0.490951 2.05272 3.48205 4.96809 6.5935 8.04167 7.86476 5.82856 2.17716 -1.74488 -3.92365 -3.74607 -1.05451 2.39727 4.79519 5.03031 3.79238 3.13669 3.30298 3.78179 4.2971 4.49401 3.88044 2.69876 1.43928 0.499892 0.0310145 -0.169375 -0.23875 -0.308125 -0.33125 -0.347917 -0.172885 -0.00552551 0.0431503 0.175909 1.188 2.67871 3.16113 2.48155 1.48073 0.677245 -0.0750319 -0.46186 -0.279543 -0.0932258 0.11723 0.456209 0.81855 1.19471 1.30237 0.945079 0.251787 -0.227609 -0.429153 -0.529458 -0.482362 -0.478055 -1 
-1 -1.46636 -1.85108 -1.53324 -0.707242 0.308884 1.67811 2.9661 4.12745 4.75394 5.19718 5.40857 4.59115 2.79171 -0.11047 -3.43327 -5.45109 -5.72828 -3.6703 -0.404857 1.98646 2.67476 2.21733 2.74672 3.47812 3.97438 4.01256 3.61086 2.72914 1.58606 0.614019 0.137473 0 0 0 0 0 -0.0397917 0.0923931 0.0757264 0.0223728 -0.282604 0.177577 1.26526 1.76185 1.38251 0.601126 0.221746 -0.130981 -0.290321 -0.0126072 0.273669 0.746005 1.108 1.5553 1.89296 1.96682 1.50518 0.738538 0.245963 0.0784463 -0.0983135 -0.152222 -0.357104 -1 
-1 -0.880052 -0.77356 -0.187071 0.789339 1.74928 2.78403 3.85943 4.42595 4.35144 3.56902 2.63324 1.30027 -0.463163 -2.81872 -5.38137 -6.95912 -6.97064 -5.07862 -2.41737 -0.191935 0.91401 1.6291 2.92109 3.80444 3.92449 3.28813 2.44581 1.51042 0.73526 0.237027 0 0 0 0 0 0 0 0 0 -0.0666727 -0.266691 -0.220619 0.308385 0.711813 0.540397 0.123527 -0.116246 -0.196824 -0.0802835 0.26289 0.629995 1.15014 1.69055 2.18241 2.59061 2.69071 2.25309 1.49936 0.935373 0.638189 0.331862 0.0269446 -0.268654 -1 
-1 0.148548 0.662872 1.23864 1.63931 2.28859 3.15712 3.96575 4.40601 3.71485 2.21625 0.354904 -1.75623 -3.69953 -5.60904 -7.40531 -8.30661 -7.87268 -6.07849 -3.9396 -1.93425 -0.15308 1.40062 2.98036 3.73201 3.49655 2.38851 1.37399 0.591273 0.237027 0.0912208 0 0 0 0 0 0 0 0 0 0 -0.0666727 -0.0519932 0.0599649 0.0173596 -0.0223967 -0.184057 -0.183113 0.0882583 0.537905 1.09746 1.37759 1.743 2.03723 2.35169 2.63882 2.9128 2.91867 2.2992 1.59765 0.806074 0.444089 0.0579452 -0.243483 -1 
-1 1.3196 2.3954 2.3983 1.85777 1.68803 2.07259 2.81458 3.25465 2.90686 1.24397 -1.36094 -4.30664 -6.75015 -8.3181 -9.45839 -9.71099 -9.12866 -7.50273 -5.62455 -3.44441 -1.08423 0.977517 2.44539 2.9065 2.53434 1.46214 0.545809 0.135986 0 0 0 0 0 0 0 0 0 0 0 0 0 -0.00833333 -0.025 -0.118777 -0.166159 -0.15427 -0.159955 0.358356 1.4567 2.32974 2.49869 2.32751 2.22188 2.18318 2.36106 2.86678 3.52181 3.2883 2.14192 0.786784 0.161865 -0.0598867 -0.330752 -1 
-1 1.76364 2.82445 2.42576 1.0911 0.400695 0.396797 0.93241 1.45682 1.22805 -0.299261 -3.39614 -6.84633 -9.43686 -10.5203 -11.0387 -10.9044 -10.464 -9.06677 -7.32179 -5.04529 -2.55708 -0.332272 0.984351 1.33127 1.10254 0.515669 0.137851 0 0 0 0 0 0 0 0 0 0 0 0 0 0 0 0 -0.072944 -0.0448915 0.0410326 0.0238845 0.674011 1.9301 3.20669 3.38314 2.9953 2.58836 2.26342 2.23212 2.7486 3.58751 3.49808 1.95328 0.26627 -0.367909 -0.356975 -0.481129 -1 
-1 1.08791 1.79401 1.37077 0.289981 -0.486282 -0.739482 -0.572249 -0.62765 -1.38746 -3.41206 -6.38861 -9.52585 -11.65 -12.1574 -12.2618 -12.0536 -11.5259 -10.283 -8.79253 -6.86541 -4.62289 -2.55025 -1.05941 -0.39693 -0.0960889 -0.0461392 0.00124325 0 0 0 0 0 0 0 0 0 0 0 0 0 0 0 0 0 0.0304144 0.121551 0.115674 0.542017 1.68964 2.9835 3.6113 3.51727 3.12247 2.6373 2.30345 2.39704 2.65402 2.25249 0.806816 -0.534117 -0.994422 -0.789151 -0.710041 -1 
-1 -0.031862 0.104167 -0.200049 -0.752285 -1.28393 -1.79914 -1.98812 -2.67037 -4.10414 -6.4208 -9.19722 -11.3429 -12.5725 -12.6295 -12.9456 -12.9991 -12.8795 -11.7904 -10.4299 -8.66035 -6.96286 -5.21762 -3.53053 -2.10057 -0.967476 -0.328909 0 0 0 0 0 0 0 0 0 0 0 0 0 0 0 0 0 0 0.0101381 0.0968776 0.0454888 0.487428 1.38272 2.64866 3.46155 3.70766 3.30681 2.81307 2.17676 1.8263 1.10244 0.28617 -0.8818 -1.60729 -1.88425 -1.73766 -1.34245 -1 
-1 -0.568513 -0.78959 -1.20562 -1.77396 -2.47493 -3.20926 -3.69371 -4.50711 -6.1397 -8.5026 -10.8559 -12.2438 -12.5319 -12.4996 -13.2679 -14.258 -14.8769 -14.2786 -12.6006 -10.5273 -9.1557 -7.84878 -5.96683 -3.78623 -1.82315 -0.56826 0 0 0 0 0 0 0 0 0 0 0 0 0 0 0 0 0 0 0 -0.00833333 -0.0333333 0.432232 1.50342 2.72035 3.353 3.2511 2.84294 2.31677 1.74828 0.985757 -0.0930035 -1.18492 -1.8696 -2.23194 -2.67824 -2.7784 -2.10939 -1 
-1 -0.840608 -1.15375 -1.85814 -2.57128 -3.69786 -4.68492 -5.42054 -6.1818 -7.54157 -9.47864 -11.4699 -12.5248 -12.5896 -12.4914 -13.6509 -15.1924 -16.538 -16.0703 -14.1998 -11.8448 -10.7641 -9.59051 -7.75148 -5.20713 -2.74021 -0.875791 0 0 0 0 0 0 0 0 0 0 0 0 0 0 0 0 0 0 0 0 -0.00833333 0.359815 1.42284 2.45067 2.68801 2.34626 1.87407 1.42259 0.939181 0.38819 -0.530105 -1.38378 -1.71456 -1.91893 -2.57196 -2.90928 -2.15832 -1 
-1 -1.29121 -1.90916 -2.70941 -3.66295 -4.76549 -5.90913 -6.88091 -7.71655 -8.92715 -10.5088 -12.0626 -13.0639 -13.4179 -13.7408 -14.8435 -16.2506 -17.1209 -16.4592 -14.7322 -12.8478 -11.7916 -10.6668 -9.00125 -6.59571 -3.64502 -1.14652 0 0 0 0 0 0 0 0 0 0 0 0 0 0 0 0 0 0 0 0 0 0.204833 0.806834 1.37939 1.4398 1.10764 0.867467 0.496483 0.148027 -0.131108 -0.601085 -1.05974 -1.14557 -1.22796 -1.75191 -1.95189 -1.49448 -1 
-1 -1.42762 -2.22208 -2.91809 -3.61252 -4.70071 -5.80465 -7.05389 -7.89306 -9.13642 -10.4495 -11.7726 -12.7178 -13.6693 -14.5613 -15.6366 -16.1449 -16.0238 -14.8307 -13.4835 -12.176 -11.2671 -10.3303 -9.25612 -7.20243 -4.06738 -1.26477 0 0 0 0 0 0 0 0 0 0 0 0 0 0 0 0 0 0 0 0 0 0 0.192333 0.168351 0.170178 0.131942 0.282543 0.202751 0.08058 -0.170944 -0.413087 -0.571019 -0.680462 -0.601618 -1.07366 -1.28982 -1.26244 -1 
-1 -1.05913 -1.48767 -1.86054 -2.40884 -3.45237 -4.82887 -5.85496 -6.73202 -8.09929 -9.54027 -10.5444 -11.3701 -12.7532 -14.207 -15.0957 -14.8737 -13.9725 -12.511 -11.1181 -10.1195 -9.4104 -8.99343 -8.56589 -6.94771 -3.95633 -1.2212 0 0 0 0 0 0 0 0 0 0 0 0 0 0 0 0 0 0 0 0 0 0 -0.00833333 -0.161902 -0.501053 -0.385496 0.153609 0.636467 0.702972 0.302701 -0.323245 -0.718648 -0.73643 -0.784507 -1.33766 -1.89465 -1.77217 -1 
-1 -0.217384 -0.0980979 0.325407 0.234281 -0.683045 -2.17691 -3.32317 -4.15406 -5.73343 -7.23006 -8.16432 -8.88745 -10.5252 -12.168 -12.9661 -12.3843 -11.0704 -9.4372 -7.88516 -6.71965 -6.26687 -6.40442 -6.74143 -5.84248 -3.50627 -1.10799 0 0 0 0 0 0 0 0 0 0 0 0 0 0 0 0 0 0 0 0 0 0 0 -0.141069 -0.581279 -0.573916 0.13631 1.12167 1.42383 0.951908 0.0549055 -0.64994 -0.882766 -1.10528 -2.04176 -2.5589 -2.01183 -1 
-1 0.616591 1.5957 2.60164 3.06066 2.4137 0.822664 -0.389672 -1.45604 -2.92651 -4.35748 -5.3132 -6.27337 -7.74649 -9.28425 -10.2004 -9.66591 -8.24587 -6.44455 -4.70333 -3.45475 -3.20906 -4.01487 -4.94918 -4.84052 -3.43053 -1.34993 -0.255941 0 0 0 0 0 0 0 0 0 0 0 0 0 0 0 0 0 0 0 0 0 0 0 -0.635316 -0.848439 -0.326754 0.923678 1.73905 1.65368 0.85284 -0.109213 -0.673508 -1.28806 -2.06724 -2.15895 -1.54639 -1 
-1 1.04565 2.6014 4.26969 5.01249 4.67148 3.61023 2.57591 1.57131 0.19777 -1.14734 -2.32637 -3.59522 -4.97487 -6.38061 -7.27946 -7.00098 -5.67799 -3.88249 -2.1725 -1.18904 -1.41848 -2.41332 -3.69932 -4.09404 -3.43901 -1.85418 -0.487657 -0.036128 0 0 0 0 0 0 0 0 0 0 0 0 0 0 0 0 0 0 0 0 0 0 -0.61141 -0.926675 -0.721624 0.608361 1.80626 2.21624 1.65438 0.633114 -0.114869 -0.762198 -1.16239 -1.0608 -0.810338 -1 
-1 1.22643 3.21067 5.10721 5.8805 5.60738 5.05047 4.8121 4.20077 3.04506 1.68086 0.421923 -1.02787 -2.72347 -4.1089 -4.88476 -4.52397 -3.32747 -1.76518 -0.461745 -0.136232 -0.828332 -2.03688 -2.98198 -3.43905 -3.18409 -1.89831 -0.75085 -0.14 -0.0241696 0 0 0 0 0 0 0 0 0 0 0 0 0 0 0 0 0 0 0 0 0 -0.368492 -0.634405 -0.68841 0.295674 1.91333 2.76969 2.20968 1.06665 0.359848 0.0108046 -0.16034 -0.167381 -0.29389 -1 
-1 1.10532 2.92326 4.85442 5.85726 6.06263 6.32987 6.71364 6.86009 5.73524 4.3236 3.08625 1.36992 -0.456101 -1.98053 -2.47818 -2.1429 -1.36905 -0.520326 0.137277 0.0130449 -0.657535 -1.74833 -2.50321 -2.71291 -2.34861 -1.56652 -0.73535 -0.263633 -0.0604239 0 0 0 0 0 0 0 0 0 0 0 0 0 0 0 0 0 0 0 0 0 0.0934364 0.218993 0.23092 0.991285 2.58898 3.56451 2.9594 1.77744 1.21792 1.07488 0.735005 0.360289 -0.170083 -1 
-1 0.959317 2.74907 4.5192 5.91032 6.85902 7.7258 8.84672 9.24395 8.51272 7.14063 5.87197 4.29881 2.4764 1.17462 0.47075 0.21302 0.328238 0.533407 0.55118 0.331407 -0.211892 -1.12386 -1.74917 -1.78331 -1.50601 -1.06977 -0.679281 -0.368494 -0.132933 -0.0241696 0 0 0 0 0 0 0 0 0 0 0 0 0 0 0 0 0 0 0 0.169549 0.724914 1.39743 1.81884 2.52422 3.90307 4.67387 4.16434 3.11067 2.44837 2.02584 1.5101 0.732304 -0.114962 -1 
-1 0.64649 2.19541 3.88626 5.27558 6.53071 8.12294 9.8472 11.0145 10.8044 9.69018 8.28568 6.70275 5.36347 4.07709 3.2325 2.53064 2.40885 2.23009 2.09237 1.94099 1.83774 1.54668 0.881674 0.590266 0.50954 0.851443 0.934071 1.02184 0.643016 0.344978 0 0 0 0 0 0 0 0 0 0 0 0 0 0 0 0 0 0 0.391274 0.990428 1.93692 2.66282 3.33889 4.41139 5.46669 6.09056 5.80858 5.10505 4.12801 3.11479 1.89724 0.857288 -0.0831754 -1 
-1 0.225218 1.42018 2.61554 3.63327 4.819 6.76352 9.31001 11.4076 12.2299 11.4217 10.0317 8.57267 7.59993 6.73665 5.6917 5.0962 5.14228 5.24127 5.0466 5.05719 5.55729 5.81665 5.11889 4.26212 4.02847 4.28362 4.23927 3.96684 3.31982 1.87749 0.739731 0 0 0 0 0 0 0 0 0 0 0 0 0 0 0 0 0 1.17382 2.56479 3.51808 3.49961 3.96597 5.15482 6.32947 7.13756 7.68645 7.38912 5.96748 3.82997 1.87317 0.522031 -0.294655 -1 
-1 -0.239765 0.22509 0.555015 1.27942 2.57567 4.83499 8.2164 10.8562 12.2895 11.8475 10.6436 9.27975 8.8097 8.42554 8.03203 7.67459 8.18219 8.66059 8.68076 9.05505 9.98491 10.8138 9.90686 8.83567 8.35594 8.80583 8.721 8.38217 7.64277 6.2412 3.30911 1.17128 0 0 0 0 0 0 0 0 0 0 0 0 0 0 0 0.624286 2.53675 4.51004 4.5562 3.79106 3.96575 5.33337 6.49183 7.59052 8.65456 8.61054 7.0851 4.39785 1.94922 0.368593 -0.438888 -1 
-1 -0.70422 -1.10493 -1.51684 -0.87103 0.923757 4.02855 7.72506 10.5188 11.8381 11.5114 10.7261 9.89695 9.79688 10.1051 10.1749 10.3287 10.9294 11.6217 12.0128 12.5632 13.4775 14.0751 13.7035 12.8028 12.4534 12.7933 12.9037 12.7597 12.8924 12.4804 10.7341 6.94538 3.5594 1.18647 0 0 0 0 0 0 0 0 0 0 0 0.584901 1.7547 3.31126 5.35849 5.74412 4.77108 3.68235 3.97832 5.30276 6.65207 7.74931 8.56115 8.35054 7.08072 4.77827 2.58499 0.9883 -0.0283759 -1 
-1 -1.04971 -1.8251 -2.61232 -1.71354 0.988867 4.54457 8.18433 10.4494 11.6492 11.4623 11.1856 10.9057 10.895 11.2443 11.7112 12.4048 13.2263 14.0825 14.9264 15.8283 16.6134 17.2254 17.2422 16.9672 16.7874 17.0507 17.2711 17.789 18.7081 19.5667 19.1858 16.3124 10.6875 4.55744 1.29323 0 0 0 0 0 0 0 0 0.632295 1.21267 2.82271 5.2124 7.77522 8.5185 7.52152 5.6784 4.47401 4.56929 5.80887 7.17984 7.97808 8.01812 7.22369 6.30561 4.89097 3.36977 1.84047 0.600594 -1 
-1 -1.3272 -2.19092 -2.53302 -0.752418 2.62347 6.38663 9.30425 10.9947 12.054 12.3902 12.3575 12.1837 12.0497 12.2972 13.1799 14.4962 15.3404 16.1729 17.5043 18.9766 20.3019 21.1552 21.406 21.2732 21.3616 21.69 22.1041 23.2195 24.9356 26.5004 27.5874 25.7089 20.5005 13.4083 8.28116 6.09693 5.0864 4.55932 4.63523 5.08318 5.3002 5.14518 4.84903 5.03489 5.58121 7.14378 9.87908 12.1666 12.1566 10.2137 8.11887 6.56533 6.04934 6.75281 7.87903 8.40172 7.67174 6.33358 5.57336 4.89711 3.77892 2.37999 0.93241 -1 
-1 -1.04221 -1.3552 -0.996612 1.1561 4.7013 7.94814 10.1051 11.4151 12.7193 13.6123 13.7197 13.7955 13.4995 13.9317 15.2142 16.8277 17.7597 18.7689 20.3316 22.1962 23.971 25.2932 25.8341 25.7367 25.9889 26.7974 27.6573 29.0976 30.9107 32.6563 33.7095 32.2621 28.9541 23.4882 19.6654 16.6082 14.7203 13.3939 13.4636 14.0315 14.1874 13.6672 12.9294 12.4147 12.0419 12.6597 14.2752 15.4761 15.2713 13.5737 11.7047 9.90886 8.75515 8.5767 9.06518 8.8918 7.53745 5.91492 5.2627 4.69103 3.78012 2.32224 0.949447 -1 
-1 -0.318397 0.152089 1.1479 3.2174 5.94219 8.41976 10.0902 11.4603 12.9759 14.0488 14.6858 15.1564 15.5438 16.4165 17.9505 19.6038 20.7 21.9183 23.6008 25.3547 27.0802 28.6498 29.6203 30.0408 30.7212 31.9562 33.2576 34.6605 36.3648 38.1198 39.3721 38.8094 36.8088 34.0721 31.8417 29.7318 27.4478 25.7661 25.2196 25.2502 24.8868 23.8863 22.6565 21.0961 19.5902 18.8363 18.9821 19.0058 18.2559 16.7624 15.0995 13.3608 11.8854 11.0675 10.6418 9.69974 8.04799 6.46657 5.58693 4.81347 3.75056 2.34958 0.893687 -1 
-1 0.289108 1.30348 2.65183 4.13682 5.92467 7.61333 9.45782 11.3102 13.0532 14.6924 15.9407 17.1417 18.1933 19.3659 20.6304 21.936 23.2695 24.7196 26.2651 27.6308 29.0599 30.4584 31.7993 32.8467 33.7888 34.9775 36.1795 37.8659 39.3922 40.8264 42.0966 42.0038 41.1205 39.1257 37.9068 36.3611 35.0006 33.5859 32.5462 31.5531 30.6413 29.3724 27.9982 26.2492 24.8196 23.496 22.5648 21.2755 19.9085 18.4847 17.0951 15.7042 14.177 12.8996 11.7666 10.3909 9.02269 7.46511 6.44731 5.41424 4.47687 2.8801 1.1911 -1 
-1 0.196849 1.41672 3.05089 4.43711 5.30787 6.57642 8.71561 11.2256 13.6734 15.9448 17.8388 19.2996 20.6738 21.7873 22.6977 23.6748 24.9784 26.4659 27.9084 29.1431 30.3268 31.4842 32.647 33.6601 34.4431 35.1055 36.064 37.7728 39.4799 40.7758 42.2112 42.784 41.9808 40.5284 39.7526 39.0819 38.3707 37.4122 36.0786 34.6914 33.7982 32.7903 31.2001 29.3337 27.671 26.0688 24.3529 22.3383 20.2471 18.6489 17.4197 16.2703 14.9946 13.5878 12.1778 10.9039 9.61621 8.32322 7.31361 6.70742 6.17423 4.6457 2.20592 -1 
-1 0.16053 1.28041 2.9051 4.15351 4.83929 5.82954 8.30494 11.4772 14.7331 17.6002 19.9564 21.6116 22.8973 23.6916 24.127 24.6509 25.8636 27.3152 28.893 29.8604 30.8475 31.5805 32.4324 33.0508 33.204 33.3926 33.9692 35.4495 37.0277 38.6653 40.52 41.1551 40.5274 38.9233 38.4834 38.3252 38.1438 37.2521 35.933 34.7624 34.3689 33.7028 32.1389 30.026 28.2275 26.3221 24.3983 21.9716 19.6982 17.8161 16.6037 15.5121 14.3546 13.2074 12.1717 10.9891 9.88326 8.89959 8.4052 8.09217 7.75148 6.02915 3.09225 -1 
-1 0.472651 1.64891 3.13655 4.46144 5.31027 6.56781 8.75841 11.9182 15.4198 18.7447 21.6813 23.6973 24.9005 25.2371 25.3565 25.7174 26.7186 28.2907 29.8169 30.7898 31.41 31.7957 32.1992 32.3426 32.2178 32.0677 32.2127 33.1352 34.6586 36.7718 39.0535 40.1812 39.751 38.4825 37.8288 37.7148 37.5232 36.6645 35.4222 34.6033 34.3171 33.7175 32.4988 30.6655 28.7061 26.557 24.3523 21.9455 19.6031 17.653 16.1349 14.8204 13.7214 12.9384 12.1713 11.2494 10.4198 9.96525 9.77624 9.32785 8.37481 6.19804 3.10057 -1 
-1 0.320061 1.54711 2.9715 4.73306 6.33516 7.8726 9.80832 12.3393 15.5978 19.0326 22.4015 24.7395 25.9444 26.1047 26.1734 26.4991 27.3066 28.4735 29.9322 30.9221 31.7073 31.7856 31.9975 31.7694 31.3333 31.0454 30.9307 31.7239 33.2569 35.3946 37.6844 38.9728 39.1028 38.0735 37.3638 36.8981 36.5986 35.911 35.0845 34.3675 33.7578 33.1527 32.2235 30.7909 28.8106 26.3816 24.1633 21.7489 19.6414 17.5781 15.9573 14.5548 13.6369 12.8636 12.1556 11.3664 10.8419 10.5565 10.4463 9.60956 7.98243 5.40377 2.55726 -1 
-1 -0.646468 0.147421 2.1254 4.84522 7.08079 8.81703 10.5131 12.7578 15.6744 19.0327 22.2912 24.6486 26.0433 26.4761 26.7955 27.138 27.4521 28.0554 29.349 30.8497 31.8576 32.0616 31.8892 31.1332 30.1488 29.6351 29.8937 31.0525 32.6216 34.5822 36.5493 37.8353 38.224 37.5268 36.7551 36.2476 35.9512 35.5812 35.0552 34.2288 33.2441 32.4089 31.6475 30.3687 28.4687 26.1491 23.8936 21.6863 19.3474 17.2066 15.6648 14.7739 14.0006 13.1948 12.2969 11.468 10.8991 10.536 10.1669 9.10091 7.28358 4.83124 2.25085 -1 
-1 -1.13287 -0.512155 1.74818 4.9064 7.3288 8.99272 10.7166 12.997 15.7817 18.7552 21.4261 23.7346 25.4195 26.4565 27.2392 27.6031 27.483 27.5203 28.7403 30.1109 31.4347 31.7341 31.6222 30.5409 29.2996 28.9231 29.6715 31.0245 32.4223 33.924 35.6354 36.5086 36.8876 36.4245 36.0477 35.5772 35.498 35.2839 34.874 33.9482 32.8267 31.8198 30.8866 29.5455 27.6167 25.5641 23.6443 21.4048 18.9586 16.7498 15.6632 15.1012 14.543 13.5941 12.4956 11.3558 10.5504 9.63427 8.98027 7.7314 6.25691 4.05503 1.77347 -1 
-1 -0.467494 0.46789 2.59113 5.33147 7.54808 9.22834 10.9269 13.155 15.721 18.1751 20.4466 22.6804 24.6351 26.1827 27.5597 28.231 28.199 28.168 28.8857 29.8731 30.6582 30.9953 30.9162 30.1209 29.286 29.336 30.2094 31.2789 32.2724 33.4756 34.7135 35.2731 35.4642 35.4085 35.2756 35.0232 34.9165 34.7907 34.5498 33.751 32.5604 31.3044 30.1724 28.6246 26.8256 25.1119 23.4387 21.3905 19.1882 17.4152 16.312 15.6983 14.9784 13.8437 12.6124 11.3657 10.2105 8.99466 7.82155 6.55508 5.13304 3.19914 1.19472 -1 
-1 0.362443 1.76625 3.61001 5.74411 7.74031 9.58029 11.3585 13.4095 15.4196 17.6646 19.6726 21.9732 23.9143 25.8232 27.6577 28.9344 29.5249 29.3564 29.4999 29.6686 30.0035 30.157 30.1247 29.8981 29.6946 30.1294 30.8568 31.5395 32.0933 32.6818 33.5382 33.9073 34.0306 33.9116 33.9837 33.8254 33.656 33.5102 33.5952 33.0188 31.8192 30.2775 28.9343 27.5214 26.1966 24.8312 23.337 21.4904 19.7725 18.1862 17.0188 16.0825 15.1832 14.0577 12.7202 11.4193 10.2681 8.83841 7.49115 5.81616 4.17474 2.35552 0.698109 -1 
-1 0.365928 1.83808 3.59595 5.60512 7.68073 9.80461 11.8278 13.6231 15.2366 17.1133 19.1784 21.3397 23.4179 25.5263 27.8529 29.7534 30.6653 30.4408 30.0141 29.7719 29.8117 29.8856 29.7967 29.6983 29.5208 29.8069 30.6885 31.5347 31.7238 31.7728 32.1627 32.5132 32.472 32.2942 32.4287 32.3705 31.7501 31.372 31.7857 31.6635 30.2521 28.316 26.8871 26.0947 25.7466 25.0919 23.5575 21.5792 19.9461 18.519 17.1772 16.1433 15.1542 14.0339 12.7511 11.6226 10.8539 9.84983 8.11057 5.80335 3.42077 1.44084 0.111868 -1 
-1 0.215099 1.3621 2.88357 4.92863 7.18987 9.83228 12.1774 14.2618 15.6595 17.3661 19.1113 21.4274 23.4232 25.7007 28.3171 30.4012 31.4151 30.8696 30.0803 29.604 29.6676 29.9628 29.894 29.6532 29.1156 29.2721 30.3231 31.3601 31.3242 30.8014 30.823 31.0616 30.9377 30.8542 31.061 31.1136 30.1249 29.3923 29.7421 29.7099 28.2108 26.1376 24.786 24.5134 24.8113 24.8051 23.431 21.477 19.7396 18.1067 16.6809 15.6046 14.7968 13.886 12.6014 11.6381 11.1724 10.3233 8.59484 5.92429 3.24747 1.03208 -0.212806 -1 
-1 0.321317 1.26058 2.42507 4.27351 6.6473 9.56268 12.4186 14.6691 16.2708 17.6576 19.1917 21.2446 23.5765 26.214 29.066 31.2148 31.943 31.0545 29.9797 29.3746 29.3616 29.676 29.8258 29.6348 29.3503 29.6318 30.5976 31.3937 31.2467 30.3744 29.8486 29.7918 29.6818 29.7044 29.9777 29.9983 29.2655 28.495 28.499 28.2319 26.7117 24.6807 23.1515 22.6522 22.9446 23.1504 22.3925 21.0248 19.5746 17.9015 16.343 15.2305 14.3093 13.3643 12.2822 11.3041 10.7494 9.9174 8.37831 6.15281 3.75107 1.59382 0.158621 -1 
-1 -0.107462 0.631481 1.88419 4.1283 7.16087 10.2127 13.0307 15.2618 16.836 18.2291 19.5808 21.7779 24.111 27.0142 29.9491 32.0668 32.557 31.363 30.2001 29.3447 29.1936 29.3999 29.5845 29.8019 29.9138 30.2471 30.8544 31.0633 30.5196 29.4394 28.7028 28.4628 28.321 28.4119 28.5159 28.7766 28.4889 28.0375 27.7376 26.9594 25.7203 23.9302 22.2577 21.1847 20.7635 21.0222 21.0139 20.4913 19.3825 17.7973 16.3636 15.1405 14.3799 13.5039 12.2767 10.9635 9.80019 8.72354 7.64984 6.13833 4.54004 2.59508 0.934699 -1 
-1 -1.17708 -0.707239 1.19295 4.77155 8.78988 12.0327 14.3529 15.9084 17.2215 18.4833 20.1751 22.4473 24.7534 27.4626 30.657 32.9448 33.489 32.3811 31.0917 30.019 29.2946 29.1008 29.3042 29.7134 29.963 30.1077 30.3224 29.9803 28.7722 27.4468 26.891 26.8202 26.49 26.2641 26.5089 27.0064 27.2571 27.0668 26.6843 25.894 24.8647 23.4666 21.8536 20.369 19.5059 19.6161 20.1034 20.037 19.2472 17.9523 16.5632 15.5129 15.12 14.4637 12.8305 10.7208 8.95031 7.73815 6.88394 6.03707 4.91405 3.34242 1.46987 -1 
-1 -1.50897 -0.854952 1.80596 6.1192 10.4729 13.668 15.6488 16.8648 18.0984 19.3617 21.241 23.647 25.873 28.2331 31.361 33.8965 34.6453 33.7129 32.4115 31.1185 30.0126 29.5737 29.5293 29.8501 29.5879 29.3186 29.1196 28.1852 26.6524 25.1309 25.0088 25.0327 24.5895 24.2153 24.6116 25.3133 25.7103 25.5896 25.1739 24.4163 23.8339 22.8466 21.7069 20.3825 19.5531 19.3382 19.7632 19.8993 19.3319 18.1555 16.6972 15.8732 15.6835 14.9872 12.9669 10.4021 8.47067 7.13081 6.22616 5.64314 4.77213 3.4966 1.63235 -1 
-1 -0.459944 1.00423 3.79476 7.5217 11.1837 14.089 16.0664 17.6773 19.3357 20.8561 22.8144 25.2764 27.5231 29.7714 32.6192 34.8374 35.5471 34.6757 33.5396 32.3291 31.129 30.4412 30.0935 29.8102 29.2524 28.5998 28.0241 26.9406 25.3811 24.2144 23.9081 23.6797 23.1876 22.937 23.2014 23.6656 23.9375 23.8174 23.472 23.0025 22.611 22.0743 21.3459 20.583 19.9984 19.7003 19.7965 19.8588 19.3021 18.0768 16.6708 15.6926 15.2266 14.1867 12.1957 10.0829 8.34583 6.95868 5.92425 5.18034 4.2873 3.06206 1.43579 -1 
-1 0.959111 3.11255 5.48463 8.25273 10.8181 13.1749 15.3781 17.6933 19.9016 21.6751 23.6284 25.8577 28.6175 30.98 33.4926 34.8552 34.7691 33.8198 32.8204 32.1133 31.1926 30.4866 29.6865 29.2606 28.7409 28.2771 27.4256 26.2179 25.1552 24.1746 23.4806 22.6791 21.9771 21.6913 21.7956 22.116 22.2016 22.0004 21.5979 21.1267 21.0479 20.7841 20.4739 20.0497 20.0853 20.2168 20.1306 19.6763 18.831 17.8089 16.3928 15.164 13.8394 12.4315 11.0167 9.6198 8.45632 7.31479 6.24216 5.43534 4.39263 3.17173 1.40929 -1 
-1 1.50956 3.68382 5.79301 7.88412 10.0228 12.1795 14.3951 16.8448 19.3021 21.286 23.1244 25.4627 28.3116 30.9735 33.0825 33.4243 32.2462 30.7306 30.1287 30.0129 29.6518 28.9189 27.9172 27.4764 27.8089 27.9706 27.2067 26.006 25.1036 24.2518 22.9556 21.4951 20.2166 19.7152 19.9658 20.5916 20.7523 20.3483 19.7417 19.3219 19.565 19.7809 19.0878 18.5775 19.4386 20.4576 20.2276 19.1027 18.1093 17.1485 15.9127 14.2669 12.5615 11.1885 10.1089 9.25925 8.40277 7.59955 7.00047 6.47944 5.67932 4.16099 2.03715 -1 
-1 1.3068 3.24672 5.10662 7.03631 8.97142 10.9401 13.04 15.4376 17.8361 19.7071 21.3465 23.5751 26.5279 29.3036 31.0592 31.0242 29.2066 27.3082 26.6215 26.8348 26.6332 26.0811 25.0903 24.8896 25.8319 26.9072 26.4875 25.4198 24.5289 23.5457 21.8817 19.9691 18.3116 17.8346 18.4906 19.301 19.3535 18.5726 17.6277 17.0493 17.5407 17.6017 16.3657 15.6189 17.099 18.7996 18.8509 17.6563 16.967 16.3069 15.1991 13.5554 11.7626 10.4512 9.53412 8.97691 8.38027 8.33454 8.4609 8.17622 7.33219 5.4417 2.82126 -1 
-1 1.04813 2.7296 4.3424 6.06918 7.94352 9.83191 11.7878 13.993 16.139 17.8965 19.4472 21.5415 24.1511 26.6136 28.4546 28.614 27.104 25.0974 24.0138 23.6781 23.3213 22.8047 21.9761 21.8729 22.9446 24.3488 24.8578 24.3589 23.5353 22.1588 20.3703 18.5208 17.1918 17.0869 17.7736 18.1766 17.7819 16.6328 15.3495 14.6155 14.5858 14.1255 12.6891 12.1225 13.5461 15.4923 16.2762 15.9709 15.6102 15.0176 14.1911 12.804 11.2656 10.1082 9.18314 8.64841 8.54975 9.24162 10.111 9.86363 8.46425 5.99246 3.01184 -1 
-1 0.946938 2.52695 3.85414 5.38293 6.9716 8.73854 10.6396 12.5944 14.5014 16.0915 17.5097 19.4141 21.2361 23.4387 25.3256 26.1092 25.1058 23.268 21.8423 20.7546 19.7403 19.0328 18.4418 18.6133 19.5002 20.8082 21.9452 22.083 21.603 20.3191 18.8272 17.1763 16.3398 16.4956 16.9967 16.7997 15.933 14.4938 13.1021 12.1721 11.4524 10.6355 9.34212 9.10213 10.3169 12.0493 13.6432 14.1197 13.9586 13.0514 12.4572 11.7993 11.0253 10.1595 8.99362 8.52621 8.62784 9.83675 10.772 10.2749 8.15559 5.08978 2.2906 -1 
-1 0.987349 2.40236 3.59978 4.75656 6.10808 7.79522 9.54387 11.3255 13.0964 14.6304 15.9705 17.2043 18.224 19.6959 22.0387 23.3416 22.4172 20.4294 19.1502 17.9045 16.2993 15.1662 14.7782 15.2426 16.1441 17.2989 18.5291 19.1893 19.1666 18.4282 17.311 15.8664 15.0924 15.2566 15.337 14.753 13.8296 12.5212 10.9447 9.76719 9.03327 8.29109 7.4166 7.5366 8.58265 10.2699 11.9601 12.6369 11.9978 10.7352 10.3352 10.6784 10.77 10.06 8.80344 8.01093 8.23971 9.27001 10.011 9.06392 6.35614 3.15968 0.90929 -1 
-1 0.969766 2.4066 3.33488 4.29467 5.41167 6.77745 8.38447 10.0957 11.8874 13.4683 14.6522 15.6202 15.975 17.1876 19.4637 20.8645 19.783 17.5026 16.4723 15.4536 13.7582 12.1823 11.6528 12.0697 12.8094 13.8176 15.0124 15.5948 16.0932 15.9962 15.3774 14.1432 13.3815 13.0939 12.8308 12.1301 11.2643 10.1264 8.54678 7.49134 6.98559 6.86075 6.55829 6.88408 7.97405 9.31524 10.7805 11.1627 10.2813 8.95081 8.91083 9.65106 10.0442 9.71738 8.36129 7.41381 7.22429 7.78586 7.88127 6.63018 3.86929 1.27955 -0.109843 -1 
-1 0.750623 1.90229 2.87244 3.76792 4.78811 6.00092 7.29043 8.80787 10.45 11.9093 13.1327 14.0295 14.6017 15.7428 17.7927 18.8545 17.8905 15.826 14.5274 13.5222 11.9469 10.2448 9.23796 9.14827 9.53354 10.5228 11.5499 12.2086 12.7217 13.0424 12.9949 12.3465 11.6445 10.9558 10.1811 9.29196 8.41533 7.2899 5.87058 4.91143 4.78796 5.25279 5.66068 6.33641 7.36529 8.48459 9.64833 10.042 9.37889 8.45695 8.33606 8.681 8.7771 8.34548 7.36591 6.39599 5.95583 5.83554 5.49055 4.31887 2.34005 0.599767 -0.234833 -1 
-1 0.243053 1.00823 1.87938 3.103 4.35273 5.35579 6.31284 7.59664 8.95142 10.2226 11.2 12.0373 12.8928 14.2046 16.0287 16.6412 15.7361 13.8358 12.6195 11.4961 10.0751 8.59409 7.35772 6.96815 7.22156 8.01421 8.72148 9.4624 10.0395 10.7704 11.0425 10.7695 9.97686 9.168 8.39839 7.41521 6.24113 5.06967 3.79067 3.29511 3.77077 4.70779 5.39147 5.89065 6.70281 7.44499 8.48406 9.02958 9.23491 8.88596 8.44071 8.01525 7.31536 6.67097 5.94707 5.38785 4.76661 4.09534 3.24088 2.27954 1.14262 0.36529 -0.254575 -1 
-1 -0.59732 -0.357925 0.508741 2.21102 3.81397 4.77307 5.48929 6.45639 7.56352 8.43382 9.04423 9.43346 9.89721 11.1642 13.2382 14.0071 12.7445 10.7524 9.70837 8.88686 7.56796 6.26391 5.43118 5.43101 5.81605 6.39115 6.87009 7.60408 8.44207 9.201 9.59736 9.35196 8.6866 8.08705 7.54997 6.60218 5.27428 3.91483 2.68856 2.65001 4.02547 5.61267 5.97838 5.72095 5.97096 6.58899 7.34775 8.26908 9.11405 9.25962 8.7214 7.48556 6.16958 5.17449 4.62147 4.31769 3.68209 2.51209 1.19404 0.129257 -0.655821 -0.954211 -0.946877 -1 
-1 -1.16401 -1.35701 -0.569217 1.01429 2.67167 3.80798 4.61855 5.35444 6.09841 6.54104 6.57353 6.42766 6.6393 7.67788 10.1491 11.0495 9.758 7.35424 6.47247 6.06466 5.00513 4.11437 3.88671 4.42606 4.96115 5.30084 5.6224 6.33291 7.29345 8.33186 8.44613 8.3022 7.6994 7.40839 7.30805 6.68516 5.47487 3.86614 2.47156 2.58129 4.36144 6.13503 6.13333 5.33751 5.28177 5.46652 6.11036 7.14051 8.55905 9.12067 8.5563 7.23172 5.7228 4.53061 3.96927 3.54932 2.50958 0.975107 -0.852707 -2.0968 -2.72616 -2.32111 -1.60717 -1 
-1 -1.16563 -1.37531 -0.971684 0.0768208 1.30297 2.51715 3.55644 4.09898 4.3687 4.23812 3.86524 3.73597 4.19428 5.62415 7.8744 8.9359 7.7794 5.47807 4.15458 3.52476 2.89964 2.62793 2.82278 3.44147 4.00218 4.19241 4.37202 4.99058 5.82938 6.53858 6.91233 6.86875 6.80308 6.9204 7.15581 6.89963 5.82379 4.03161 2.38423 2.16058 3.4584 4.8821 5.07559 4.68973 4.68381 4.80314 5.07245 6.0397 7.3057 7.85572 7.72967 6.91157 5.69617 4.51757 3.72629 2.74212 1.18985 -0.855221 -3.01087 -4.30874 -4.48895 -3.37912 -1.99216 -1 
-1 -0.685898 -0.71894 -0.641491 -0.33573 0.591844 1.65256 2.63612 3.06428 3.06185 2.4984 1.80634 1.47698 2.17634 3.55489 5.82027 6.82661 6.42148 4.33718 2.73341 1.62738 1.12183 1.32695 1.83039 2.52048 2.95464 2.92415 3.27285 3.75974 4.42313 4.88358 4.99448 5.29545 5.49401 5.82994 6.47039 6.26924 5.29896 3.63994 2.13633 1.70657 2.11213 2.9177 3.38235 3.49482 3.88301 3.96114 4.24855 4.649 5.24848 5.73528 6.14211 6.08881 5.62629 4.64662 3.60642 2.11408 0.283548 -1.82638 -4.02351 -5.29038 -5.0276 -3.55861 -2.04147 -1 
-1 -0.0914032 0.241444 0.0160176 -0.126468 0.591 1.6322 2.17908 2.30452 2.36706 1.87279 0.958254 0.246707 0.20064 1.26192 3.31805 4.89063 4.80754 3.11123 1.54355 0.330471 -0.686263 -0.692666 0.290448 1.404 1.9885 2.16986 2.36328 2.7054 2.92602 2.84095 3.007 3.45132 3.69115 4.04118 4.82692 4.86973 3.73809 2.26782 1.27779 1.04202 1.43177 2.02427 2.32955 2.57563 2.93493 3.24019 3.42519 3.26188 3.06206 3.33741 4.11512 4.85683 5.21875 4.70049 3.46149 1.63484 8.33339e-05 -1.6641 -3.61901 -4.74237 -4.31549 -2.86691 -1.69018 -1 
-1 0.448941 0.966261 0.442231 0.135618 0.68709 1.45966 1.60374 1.63226 1.92978 1.93401 1.02491 -0.0105904 -0.876987 -0.668136 1.11022 2.59351 2.80233 1.51881 0.636394 -0.39333 -1.58223 -2.08216 -1.11232 0.37181 1.20765 1.23176 1.41332 1.59028 1.52809 1.47267 1.57589 2.05377 1.98654 1.94146 2.51597 2.76238 1.93977 0.893762 0.283009 0.668428 1.07046 1.72192 1.80655 1.76776 1.95447 2.25025 2.25404 1.93839 1.37566 1.31044 2.0327 3.14811 4.09731 4.02998 2.8251 1.25621 0.176976 -0.898122 -2.41093 -3.39148 -2.87884 -1.85328 -1.0269 -1 
-1 0.384056 0.649728 0.243243 -0.0445155 0.273006 0.658633 0.565784 0.637542 0.98925 1.0819 0.623038 -0.187561 -1.02997 -1.02869 -0.116185 0.831711 0.919048 0.3275 -0.100365 -0.627786 -1.46378 -2.00188 -1.49536 -0.330227 0.379144 0.451111 0.455975 0.460495 0.3343 0.263027 0.437129 0.739993 0.665774 0.461325 0.664531 1.00582 0.630249 -0.0450389 -0.306678 -0.0338766 0.355947 0.852745 0.968118 0.866165 0.847749 0.968323 0.90742 0.623231 0.188537 0.0709606 0.45297 1.36727 2.20813 2.22192 1.4361 0.554263 0.0382768 -0.569851 -1.4927 -1.99047 -1.71007 -1.03883 -0.659983 -1 
-1 -1 -1 -1 -1 -1 -1 -1 -1 -1 -1 -1 -1 -1 -1 -1 -1 -1 -1 -1 -1 -1 -1 -1 -1 -1 -1 -1 -1 -1 -1 -1 -1 -1 -1 -1 -1 -1 -1 -1 -1 -1 -1 -1 -1 -1 -1 -1 -1 -1 -1 -1 -1 -1 -1 -1 -1 -1 -1 -1 -1 -1 -1 -1 -1 
