ncols 256
nrows 47
xllcorner 0
yllcorner 142
cellsize 1
69.1562 70.3123 71.4685 72.6247 74.4167 76.2088 78.0009 79.7929 81.5574 83.3218 85.0863 86.8507 88.1406 89.4304 90.7203 92.0101 93.8483 95.6865 97.5247 99.3629 100.465 101.568 102.67 103.772 105.31 106.848 108.385 109.923 111.929 113.935 115.94 117.946 120.024 122.102 124.18 126.258 126.803 127.348 127.893 128.438 130.146 131.854 133.563 135.271 136.738 138.205 139.671 141.138 141.979 142.819 143.659 144.5 146.432 148.365 150.298 152.23 153.965 155.699 157.433 159.168 161.173 163.179 165.184 167.19 166.477 165.764 165.051 164.338 165.266 166.193 167.121 168.049 169.176 170.303 171.429 172.556 172.481 172.405 172.33 172.254 172.569 172.884 173.199 173.514 174.01 174.507 175.003 175.5 175.577 175.655 175.733 175.81 175.711 175.611 175.512 175.412 175.926 176.439 176.952 177.465 177.137 176.809 176.481 176.153 176.56 176.967 177.374 177.781 177.129 176.477 175.825 175.172 174.792 174.412 174.032 173.652 174.913 176.173 177.434 178.694 178.793 178.892 178.99 179.089 180.046 181.002 181.959 182.916 184.321 185.726 187.132 188.537 190.104 191.67 193.237 194.804 196.433 198.062 199.691 201.32 202.477 203.634 204.791 205.948 206.994 208.039 209.085 210.131 212.17 214.208 216.247 218.286 219.769 221.253 222.736 224.219 225.434 226.648 227.863 229.077 230.782 232.486 234.19 235.895 236.648 237.402 238.155 238.909 240.682 242.455 244.229 246.002 247.302 248.602 249.903 251.203 252.217 253.231 254.245 255.259 256.762 258.265 259.768 261.271 262.811 264.35 265.89 267.429 268.736 270.043 271.351 272.658 272.708 272.757 272.807 272.857 274.166 275.476 276.785 278.095 279.17 280.246 281.321 282.397 283.012 283.627 284.242 284.857 285.881 286.905 287.928 288.952 289.812 290.672 291.532 292.392 292.776 293.161 293.546 293.93 295.413 296.896 298.378 299.861 300.923 301.984 303.046 304.107 305.019 305.93 306.842 307.754 308.317 308.88 309.443 310.006 310.18 310.353 310.526 310.699 310.353 310.006 309.659 309.312 310.781 312.25 313.719 315.188 316.831 318.475 320.118 321.761 322.321 322.881 323.44 324
69.7202 71.6673 72.7682 73.8174 74.8317 76.9643 78.9071 80.5425 82.1227 83.4445 85.4438 87.2908 88.7004 90.4327 90.7505 92.6154 94.6319 96.4479 97.9324 99.4711 100.083 101.174 102.73 104.119 106.25 107.828 108.696 110.677 112.555 114.563 116.852 118.638 120.179 121.934 123.853 125.895 126.466 127.02 127.748 128.554 130.21 132.187 133.436 135.255 137.074 138.566 140.013 141.231 142.197 143.352 144.017 144.926 146.799 147.955 150.223 151.897 153.315 154.766 156.946 159.241 161.106 163.097 165.452 167.398 166.461 165.801 165.719 165.266 165.65 166.32 167.31 168.055 168.928 170.254 171.18 172.279 172.123 172.388 173.136 172.895 173.378 173.505 174.231 174.443 175.019 175.21 176.064 176.536 176.514 176.847 176.582 176.539 176.372 175.992 176.201 176.01 176.354 177.062 177.303 177.527 177.579 177.269 177.65 176.519 176.525 176.662 177.043 177.287 177.123 176.584 175.863 174.877 174.793 174.487 174.627 174.409 176.051 177.523 177.91 178.863 179.193 179.835 179.855 180.006 181.101 182.601 183.074 183.724 185.473 186.903 187.837 189.495 190.958 192.551 194.093 195.751 197.128 198.61 200.542 202.008 203.341 204.329 205.936 206.849 207.436 208.102 209.912 211.654 213.417 215.792 217.208 219.439 220.43 221.672 223.55 225.171 225.943 227.534 229.009 230.096 231.342 232.741 234.474 236.25 237.201 238.106 238.55 239.552 241.033 243.259 244.818 246.53 247.882 248.859 250.444 252.088 253.049 253.503 254.976 256.231 257.324 258.518 260.309 261.841 263.273 264.781 266.318 267.89 268.952 270.065 272.023 273.242 273.518 273.531 274.005 273.974 275.268 276.533 277.573 278.485 279.594 280.914 281.716 282.626 283.212 283.603 284.213 285.386 286.594 287.908 288.642 289.565 290.555 291.659 292.284 293.252 293.546 294.001 294.696 295.497 296.722 298.039 299.668 301.036 302.017 302.397 304.24 305.418 305.99 306.692 308.551 309.35 309.239 309.41 310.362 310.999 310.63 310.684 310.993 311.479 310.642 311.224 311.059 310.784 311.742 313.339 315 315.538 316.84 318.567 320.526 321.894 322.295 323.806 323.815 325
71.5112 73.0223 74.0162 75.0101 76.365 77.7198 79.506 81.2921 82.4296 83.5672 85.649 87.7309 89.5829 91.4349 92.3278 93.2206 95.2149 97.2093 98.3943 99.5794 100.18 100.78 102.623 104.466 106.638 108.809 110.12 111.43 113.31 115.191 117.26 119.33 120.548 121.765 123.649 125.533 126.112 126.692 127.681 128.67 130.594 132.519 133.879 135.238 137.083 138.928 140.126 141.323 142.604 143.885 144.618 145.352 146.449 147.546 149.555 151.564 152.699 153.833 156.574 159.314 161.165 163.016 165.311 167.607 166.722 165.838 166.016 166.193 166.32 166.447 167.255 168.062 169.134 170.206 171.104 172.002 172.186 172.37 172.953 173.537 173.832 174.127 174.75 175.373 175.643 175.912 176.742 177.572 177.806 178.039 177.653 177.267 176.82 176.373 176.491 176.608 177.147 177.686 177.637 177.588 177.659 177.73 177.308 176.885 176.621 176.357 176.575 176.793 176.742 176.69 175.636 174.582 174.571 174.561 174.863 175.166 177.019 178.872 178.952 179.032 179.905 180.779 180.851 180.923 182.562 184.2 184.366 184.531 186.306 188.08 189.267 190.453 191.943 193.432 195.065 196.699 197.928 199.158 200.927 202.696 203.86 205.025 206.387 207.75 207.957 208.164 210.671 213.178 215.277 217.376 218.984 220.592 221.342 222.092 224.107 226.122 227.271 228.419 229.767 231.114 232.055 232.996 234.801 236.606 237.708 238.811 239.503 240.196 242.129 244.062 245.56 247.057 248.087 249.116 251.044 252.973 253.373 253.774 255.488 257.203 257.987 258.771 260.591 262.41 263.811 265.212 266.781 268.35 269.218 270.087 271.956 273.825 274.065 274.305 274.698 275.091 276.34 277.589 278.233 278.876 280.23 281.583 282.219 282.856 283.217 283.579 284.747 285.915 287.413 288.911 289.544 290.177 291.412 292.646 293.379 294.112 294.476 294.84 295.952 297.063 298.123 299.182 300.696 302.211 302.511 302.811 304.769 306.728 307.091 307.453 309.199 310.945 310.442 309.939 310.966 311.992 311.503 311.015 311.637 312.259 312.35 312.441 312.349 312.257 313.343 314.429 315.158 315.887 317.273 318.659 320.343 322.027 323.379 324.731 325.366 326
72.1217 73.86 75.1782 76.2029 77.5507 78.9066 80.6167 82.0416 83.4773 84.6342 86.4431 88.171 89.4854 91.478 92.7389 93.8258 95.3042 97.1614 98.8019 99.6876 100.376 101.629 102.869 104.813 106.957 108.929 110.32 112.184 113.948 116.008 117.597 120.022 121.412 122.263 123.594 125.17 126.128 126.773 127.608 128.786 130.409 132.286 133.946 135.222 136.744 138.643 140.111 141.416 143.035 143.87 145.04 145.777 146.647 148.048 149.848 151.231 152.832 154.506 157.025 159.387 160.984 163.379 165.913 167.815 167.49 166.937 166.83 167.121 167.329 167.255 167.892 168.068 168.767 169.984 170.868 171.724 172.233 172.752 173.791 174.178 174.847 175.076 176.158 176.302 177.194 177.175 177.89 178.608 178.622 178.612 178.215 177.995 177.522 177.318 177.391 177.205 177.192 177.722 177.974 177.649 177.837 177.697 177.461 177.252 176.93 176.534 176.318 176.299 175.993 175.794 174.909 174.287 174.581 174.948 175.347 175.923 176.824 178.449 178.773 179.2 179.95 180.921 181.608 181.841 183.074 184.326 184.57 185.339 186.822 188.669 190.369 191.411 193.065 194.457 196.087 197.646 198.989 200.245 201.441 203.384 204.518 205.918 207.225 208.651 209.163 210.526 211.986 214.701 216.451 218.468 219.914 221.744 223.084 223.776 225.612 227.073 228.083 229.503 230.8 232.132 232.494 234.115 235.295 236.961 238.214 239.106 240.085 240.84 242.788 244.43 246.213 247.585 249.085 250.272 252.212 253.857 254.065 255.359 256.518 258.174 258.956 260.06 261.425 262.98 264.408 265.811 267.433 268.811 269.807 271.109 272.432 274.409 274.794 275.232 275.655 276.208 276.991 278.04 278.794 279.267 280.375 281.535 282.335 283.085 283.823 284.361 285.45 286.444 287.891 289.049 289.698 290.79 291.961 293.132 294.144 294.972 295.582 296.427 297.566 298.63 299.576 300.78 301.675 303.386 304.258 304.883 306.667 308.038 309.004 309.598 311.195 312.541 312.454 311.998 312.641 312.985 312.697 312.456 312.107 313.039 313.125 313.476 313.805 313.73 314.56 315.161 315.767 316.236 317.781 319.049 320.228 322.16 323.93 324.939 325.827 327
73.3489 74.6978 76.0467 77.3956 78.7445 80.0934 81.4423 82.7912 84.2462 85.7012 87.1561 88.6111 90.0661 91.5211 92.9761 94.431 95.7722 97.1134 98.4546 99.7958 101.137 102.478 103.819 105.161 107.105 109.049 110.993 112.937 114.881 116.826 118.77 120.714 121.737 122.761 123.784 124.808 125.831 126.855 127.878 128.902 130.478 132.054 133.629 135.205 136.781 138.357 139.933 141.508 142.682 143.856 145.03 146.203 147.377 148.551 149.724 150.898 153.039 155.179 157.32 159.461 161.601 163.742 165.882 168.023 168.03 168.036 168.043 168.049 168.055 168.062 168.068 168.075 168.918 169.761 170.604 171.447 172.29 173.133 173.976 174.819 175.422 176.025 176.629 177.232 177.835 178.438 179.041 179.645 179.414 179.184 178.954 178.724 178.494 178.264 178.033 177.803 177.78 177.757 177.734 177.711 177.687 177.664 177.641 177.618 177.165 176.711 176.258 175.805 175.351 174.898 174.445 173.991 174.664 175.336 176.008 176.68 177.353 178.025 178.697 179.369 180.216 181.064 181.911 182.758 183.605 184.452 185.299 186.147 187.702 189.258 190.814 192.37 193.926 195.481 197.037 198.593 199.963 201.333 202.702 204.072 205.442 206.812 208.182 209.551 211.22 212.888 214.556 216.224 217.893 219.561 221.229 222.897 224.179 225.461 226.742 228.024 229.306 230.587 231.869 233.151 234.192 235.234 236.275 237.317 238.359 239.4 240.442 241.484 243.141 244.798 246.456 248.113 249.77 251.428 253.085 254.742 255.843 256.944 258.045 259.146 260.247 261.348 262.449 263.55 264.98 266.41 267.841 269.271 270.702 272.132 273.563 274.993 275.576 276.159 276.742 277.325 277.908 278.491 279.074 279.657 280.572 281.486 282.401 283.315 284.229 285.144 286.058 286.973 288.08 289.188 290.295 291.402 292.51 293.617 294.725 295.832 296.923 298.014 299.105 300.197 301.288 302.379 303.47 304.561 305.758 306.955 308.152 309.349 310.546 311.743 312.94 314.137 314.097 314.057 314.017 313.978 313.938 313.898 313.858 313.818 314.164 314.51 314.856 315.202 315.548 315.894 316.24 316.586 318.013 319.439 320.866 322.293 323.72 325.146 326.573 328
74.4978 75.5568 77.0947 78.3962 79.6183 81.1285 82.8784 83.6469 84.9654 86.6517 87.3703 88.6752 90.7511 92.4306 93.9336 95.0363 96.7503 98.3459 100.142 101.378 102.659 103.889 104.909 106.111 107.718 109.857 111.628 113.976 115.823 117.678 119.63 121.406 122.273 123.433 124.585 126.203 127.387 128.081 128.835 129.57 131.07 132.799 134.922 136.902 137.569 138.864 140.47 141.601 142.871 144.4 145.719 146.96 148.458 149.561 150.618 151.532 153.964 156.174 157.769 160.074 162.598 164.418 166.336 168.231 168.482 168.208 168.222 168.296 167.842 168.386 168.538 168.918 169.628 170.33 171.106 171.712 172.34 173.588 174.366 175.46 175.924 176.563 177.472 177.766 178.144 178.996 179.06 179.847 179.822 179.322 178.791 179.096 179.131 178.82 178.718 178.401 177.942 177.952 178.206 177.692 177.63 177.965 177.783 177.554 176.865 175.958 175.673 175.373 175.168 175.18 174.417 173.696 174.995 175.713 176.598 176.86 177.819 178.607 179.372 179.713 180.739 181.367 182.368 183.061 184.138 184.631 185.605 186.954 188.41 189.443 191.099 193.062 194.734 196.68 198.089 199.354 200.679 202.889 204.487 206.128 206.68 208.075 209.255 210.452 211.574 213.143 215.074 217.458 219.155 220.994 222.516 223.664 224.565 226.196 227.413 228.818 230.284 231.137 232.219 234.169 235.426 236.539 237.841 239.062 240.262 241.094 241.675 242.743 244.475 246.026 247.453 248.819 250.085 251.777 253.696 255.627 256.572 257.565 258.934 259.711 260.708 261.542 262.823 264.449 265.157 266.614 268.295 269.722 271.832 272.995 274.299 275.577 276.577 277.458 277.97 278.636 278.909 279.551 280.078 280.379 281.445 282.486 283.366 284.218 284.799 285.665 286.417 287.501 288.338 289.785 291.447 292.208 293.235 294.594 295.553 296.676 297.493 298.527 299.566 300.537 302.047 303.247 303.974 305.736 306.574 307.449 308.409 309.107 310.482 311.755 313.109 314.496 314.779 314.372 314.106 314.027 313.943 313.87 313.977 314.598 314.811 315.484 315.8 316.629 316.915 317.233 317.925 318.016 319.595 320.763 322.463 323.666 324.917 326.426 327.688 329
75.2079 76.4158 77.9063 79.3967 80.7802 82.1636 83.333 84.5025 86.0523 87.6022 88.1707 88.7393 91.0397 93.3401 94.4908 95.6415 97.6099 99.5784 101.269 102.961 104.13 105.3 106.18 107.061 108.863 110.665 112.839 115.014 116.772 118.531 120.314 122.098 123.101 124.104 125.851 127.598 128.452 129.307 129.773 130.239 131.891 133.543 136.071 138.598 138.985 139.371 140.532 141.694 143.319 144.945 146.33 147.716 149.144 150.572 151.369 152.166 154.667 157.169 158.928 160.688 162.891 165.094 166.767 168.44 168.409 168.379 168.461 168.543 168.627 168.71 169.235 169.761 170.33 170.898 171.438 171.977 173.01 174.043 175.072 176.102 176.601 177.1 177.7 178.299 178.927 179.554 179.802 180.05 179.755 179.461 179.464 179.468 179.422 179.376 179.187 178.999 178.573 178.148 177.91 177.673 177.969 178.265 177.878 177.49 176.348 175.205 175.074 174.942 175.202 175.461 174.431 173.401 174.746 176.09 176.566 177.041 178.115 179.19 179.623 180.056 180.864 181.671 182.518 183.365 184.087 184.81 186.286 187.762 188.694 189.627 191.691 193.755 195.817 197.878 198.997 200.115 202.28 204.445 206.315 208.185 208.761 209.338 210.345 211.353 212.376 213.399 216.046 218.693 220.56 222.427 223.428 224.43 225.68 226.931 228.271 229.612 230.649 231.686 233.437 235.187 236.515 237.843 239.326 240.808 241.798 242.788 243.395 244.002 245.628 247.253 248.389 249.525 250.826 252.127 254.32 256.512 257.349 258.185 259.231 260.277 261.007 261.736 263.542 265.348 266.082 266.817 268.494 270.172 272.015 273.858 275.009 276.161 277.459 278.757 279.352 279.947 280.279 280.612 280.856 281.101 282.293 283.485 284.303 285.121 285.653 286.185 287.108 288.03 289.206 290.382 291.698 293.014 294.292 295.57 296.545 297.52 298.279 299.039 299.958 300.878 302.496 304.114 305.513 306.911 307.427 307.943 308.404 308.865 310.316 311.767 313.311 314.855 314.77 314.686 314.382 314.077 313.96 313.843 314.61 315.378 315.918 316.458 317.257 318.056 318.314 318.572 319.009 319.446 320.767 322.087 323.563 325.039 326.372 327.706 328.853 330
76.6663 77.5574 78.7826 80.3973 82.0158 82.9847 84.3095 85.3582 86.4295 87.5714 88.048 88.8033 91.1023 93.0999 95.048 96.2467 98.2496 100.534 101.906 104.543 105.017 106.421 107.322 108.011 110.357 111.845 113.866 116.052 117.399 119.408 121.103 122.79 123.746 125.52 127.316 128.993 129.491 130.144 130.457 130.907 132.389 135.164 137.8 140.295 140.533 140.653 141.245 141.786 143.921 145.249 146.705 148.472 150.163 150.952 151.646 152.8 155.071 157.422 159.337 161.301 163.255 165.24 166.794 168.648 168.712 168.663 168.692 168.791 169.442 169.476 170.021 170.604 171.186 171.438 172.098 172.241 173.352 174.494 175.644 176.743 177.743 177.738 178.361 178.833 179.16 179.733 180.406 180.253 180.67 179.897 180.164 179.839 179.876 179.789 179.815 179.596 179.019 178.531 177.732 177.654 177.681 177.882 177.711 177.426 176.145 175.463 174.851 174.511 174.159 174.453 174.031 173.106 174.907 175.598 176.35 177.221 178.54 179.131 180.103 180.4 181.445 182.014 182.787 183.668 185.089 185.742 187.068 188.569 189.778 190.943 192.655 194.448 196.304 198.134 199.432 200.876 203.213 205.706 208.122 210.241 210.314 211.032 211.406 212.254 213.372 215.278 217.893 219.927 221.63 222.994 224.316 225.196 226.431 227.756 228.879 230.405 231.98 232.949 234.534 236.206 237.567 239.302 241.102 242.553 243.001 244.099 244.578 245.262 247.024 247.991 249 250.231 251.767 253.368 255.802 257.397 257.863 259.015 260.109 260.842 261.991 263.007 264.181 266.247 266.901 267.963 269.442 270.623 272.498 274.03 274.964 276.744 277.744 279.353 280.564 281.258 282.107 281.584 281.774 281.823 283.104 284.111 285.37 286.025 286.59 287.097 287.828 288.559 290.228 291.119 292.316 293.82 295 296.243 296.992 298.363 298.929 299.711 300.234 301.218 303.332 304.762 306.403 308.086 308.197 308.382 308.547 308.623 310.339 311.872 313.901 315.214 315.089 314.781 315.12 314.127 314.078 314.7 315.544 316.157 317.286 317.691 318.86 319.483 320.018 320.09 320.616 320.877 321.949 323.566 325.063 326.411 327.8 328.799 329.644 331
77.3495 78.6989 80.0484 81.3978 82.6018 83.8058 85.0098 86.2138 86.8772 87.5406 88.204 88.8674 90.8635 92.8597 94.8558 96.8519 99.1703 101.489 103.807 106.125 106.834 107.543 108.252 108.961 110.993 113.026 115.058 117.091 118.689 120.286 121.884 123.482 125.208 126.935 128.661 130.388 130.685 130.982 131.279 131.576 134.18 136.784 139.388 141.992 141.963 141.935 141.907 141.879 143.716 145.554 147.391 149.229 150.28 151.331 152.382 153.434 155.554 157.674 159.794 161.914 163.65 165.385 167.121 168.856 168.902 168.947 168.992 169.038 169.64 170.242 170.845 171.447 171.712 171.977 172.241 172.506 173.726 174.945 176.165 177.384 177.88 178.376 178.871 179.367 179.639 179.911 180.184 180.456 180.395 180.333 180.272 180.211 180.207 180.203 180.198 180.194 179.554 178.914 178.275 177.635 177.567 177.499 177.431 177.363 176.542 175.721 174.901 174.08 173.762 173.445 173.128 172.81 173.958 175.106 176.253 177.401 178.237 179.072 179.908 180.744 181.551 182.357 183.164 183.971 185.323 186.674 188.025 189.377 190.818 192.259 193.7 195.141 196.765 198.389 200.013 201.638 204.302 206.967 209.632 212.297 212.511 212.726 212.94 213.154 215.156 217.158 219.159 221.161 222.361 223.562 224.762 225.962 227.272 228.581 229.89 231.199 232.705 234.211 235.718 237.224 238.993 240.761 242.53 244.299 244.854 245.41 245.966 246.521 247.625 248.729 249.833 250.937 252.773 254.609 256.445 258.282 259.063 259.845 260.626 261.408 262.842 264.277 265.711 267.146 268.128 269.11 270.092 271.073 272.637 274.201 275.765 277.328 278.638 279.949 281.259 282.569 282.563 282.557 282.551 282.545 283.641 284.737 285.832 286.928 287.468 288.008 288.548 289.088 290.472 291.857 293.241 294.626 295.771 296.916 298.062 299.207 299.795 300.383 300.971 301.559 303.484 305.41 307.335 309.261 309.041 308.821 308.601 308.382 310.179 311.977 313.775 315.573 315.224 314.875 314.526 314.177 314.867 315.557 316.247 316.937 317.93 318.924 319.917 320.91 321.259 321.609 321.958 322.307 323.676 325.046 326.415 327.784 328.838 329.892 330.946 332
77.941 79.6256 80.9021 82.2529 83.7645 84.9986 85.9268 87.0695 87.9539 88.9436 89.3179 90.2642 92.335 94.0875 95.3396 97.4572 99.6074 102.368 104.798 106.098 107.76 108.654 109.367 109.911 111.632 113.523 115.991 117.694 119.319 120.981 122.971 124.173 125.924 127.574 128.522 130.353 130.385 131.116 131.749 132.244 133.983 136.117 138.547 141.056 140.785 140.779 141.126 141.971 143.644 145.87 147.516 149.199 150.417 151.807 153.143 154.068 156.327 158.274 159.988 162.143 163.675 165.375 167.406 169.064 169.714 169.152 169.708 169.842 170.422 171.009 171.908 172.29 172.878 173.183 173.304 173.726 174.801 176.128 177.145 178.025 177.879 178.059 178.618 179.677 179.797 180.17 180.079 180.659 180.355 180.061 180.683 180.64 180.433 180.627 181.155 180.792 179.957 179.588 179.401 178.188 177.502 177.373 177.43 177.299 176.262 175.462 174.66 174.152 173.67 173.38 173.393 172.515 173.684 174.221 175.783 177.269 178.039 179.211 179.87 181.087 182.521 183.047 184.044 184.819 186.273 187.251 188.435 190.184 192.154 193.641 194.578 196.017 197.324 198.757 200.819 202.399 205.11 207.12 209.126 211.903 212.876 213.205 213.618 214.055 216.717 217.971 219.834 221.594 223.074 224.15 225.264 226.729 228.002 228.932 230.805 232.19 233.771 234.946 236.662 238.242 239.844 241.362 243.034 244.831 245.364 245.726 247.07 247.781 248.957 249.975 251.382 252.375 254.345 255.672 257.398 259.167 260.379 260.895 261.881 262.626 263.594 264.943 266.282 268.045 269.223 270.035 270.813 272.106 273.077 275.093 276.737 277.912 279.358 280.564 281.669 282.564 282.527 282.553 283.132 283.267 284.744 285.725 286.746 287.276 287.844 288.891 289.048 289.617 291.324 292.377 293.753 295.192 296.429 297.962 299.709 300.051 300.864 301.338 302.569 303.237 305.011 306.782 309.325 310.436 310.447 309.948 309.846 310.157 311.249 312.419 314.255 315.932 316.03 315.445 315.002 315.266 315.978 316.888 317.376 317.717 318.731 319.924 320.587 321.693 321.874 322.501 322.613 323.737 325.038 326.166 327.222 328.842 329.414 330.576 331.631 333
79.2761 80.5522 81.8301 83.108 84.6497 86.1914 87.0583 87.9251 89.1358 90.3465 91.0038 91.661 93.4882 95.3153 96.6889 98.0624 100.655 103.247 104.659 106.071 107.918 109.766 110.313 110.861 112.44 114.019 116.159 118.298 119.987 121.677 123.271 124.865 126.539 128.213 129.266 130.319 130.785 131.251 132.082 132.912 134.182 135.451 137.786 140.12 139.872 139.623 140.843 142.064 144.125 146.186 147.677 149.169 150.725 152.282 153.492 154.701 156.787 158.873 160.623 162.372 163.868 165.365 167.319 169.273 169.315 169.357 170.002 170.646 171.21 171.775 172.454 173.133 173.761 174.389 174.667 174.945 176.128 177.312 177.989 178.667 178.204 177.742 178.865 179.988 180.208 180.429 180.645 180.861 180.325 179.789 180.429 181.069 181.06 181.051 181.22 181.39 180.825 180.261 179.501 178.74 177.994 177.248 177.241 177.235 176.218 175.202 174.713 174.224 173.77 173.315 172.767 172.22 172.779 173.337 175.237 177.137 178.244 179.35 180.39 181.431 182.584 183.737 184.702 185.667 186.748 187.828 189.41 190.992 193.008 195.024 195.958 196.893 198.008 199.124 201.142 203.16 205.216 207.273 209.391 211.508 212.596 213.684 214.32 214.956 216.871 218.785 220.406 222.027 223.383 224.738 226.117 227.495 228.389 229.284 231.232 233.181 234.431 235.681 237.471 239.26 240.611 241.962 243.663 245.363 245.702 246.041 247.541 249.04 250.13 251.22 252.517 253.813 255.274 256.735 258.393 260.051 260.998 261.945 262.895 263.845 264.727 265.608 267.276 268.944 269.952 270.96 272.049 273.138 274.562 275.985 277.241 278.496 279.837 281.179 281.869 282.559 282.554 282.55 283.27 283.989 285.351 286.713 287.168 287.623 288.699 289.774 289.96 290.146 291.521 292.897 294.328 295.759 297.384 299.008 299.951 300.895 301.593 302.292 303.604 304.915 306.534 308.154 309.882 311.611 311.343 311.076 311.504 311.933 312.397 312.862 314.576 316.29 316.153 316.016 316.185 316.355 317.287 318.219 318.358 318.496 319.71 320.924 321.7 322.476 322.935 323.393 324.28 325.167 326.227 327.287 328.593 329.899 330.58 331.261 332.63 334
80.658 81.4807 82.9653 83.9631 85.2126 86.7094 87.6663 88.7808 90.1612 91.196 91.8571 93.0578 94.7475 96.0895 97.1684 98.6676 100.629 102.946 104.506 106.044 107.681 109.577 110.44 111.811 113.15 115.076 117.065 118.902 120.603 122.277 123.893 125.557 126.509 128.231 129.072 130.284 131.221 131.75 132.204 133.581 134.202 135.85 137.409 139.185 139.515 139.936 141.311 142.157 143.944 145.932 147.698 149.139 150.549 152.411 153.786 155.335 157.205 159.136 160.838 162.601 164.093 165.812 167.864 169.481 170.173 170.165 171.182 171.45 172.484 172.656 173.5 173.976 174.123 175.245 175.788 176.165 176.796 177.989 178.631 179.308 179.339 179.01 178.925 180.298 180.325 180.683 181.049 181.064 180.653 180.693 180.594 181.497 181.569 181.653 181.544 181.987 180.826 180.738 180.34 179.293 178.687 177.862 178.199 177.171 176.182 175.47 174.566 174.296 173.893 173.157 172.25 171.924 172.278 173.794 175.339 177.006 177.816 179.423 180.241 181.775 182.928 184.239 185.478 186.515 187.295 188.907 190.329 191.8 193.374 195.325 196.208 197.769 199.048 200.394 202.445 203.921 205.395 207.487 209.631 211.114 212.794 213.711 214.789 215.857 217.027 219.305 221.003 222.46 224.306 225.349 226.713 228.261 229.703 230.689 232.819 234.171 235.575 236.955 238.789 240.279 241.515 242.912 244.375 245.896 246.771 247.517 248.899 250.3 251.71 252.672 253.933 255.252 256.16 257.995 258.979 260.936 262.255 262.998 263.716 265.063 266.161 267.06 268.229 269.843 270.662 271.966 272.667 274.17 275.564 276.709 277.648 279.08 280.114 281.142 281.679 282.554 282.539 283.27 283.688 284.711 285.763 286.795 287.477 287.971 288.978 289.768 290.226 290.674 291.916 293.472 294.666 296.326 297.769 299.373 300.454 301.738 302.838 303.859 305.408 306.593 307.783 309.635 311.325 312.786 312.805 312.899 313.09 313.709 314.615 314.554 315.963 316.649 316.857 316.893 317.195 317.443 317.937 318.756 318.785 319.276 320.574 321.486 322.846 323.259 324.14 324.714 325.865 326.598 327.789 328.654 329.835 330.957 331.708 332.634 334.284 335
81.2046 82.4091 83.6137 84.8182 86.0228 87.2273 88.4319 89.6364 90.841 92.0455 93.2501 94.4546 95.6592 96.8637 98.0683 99.2728 100.959 102.645 104.331 106.017 107.703 109.389 111.075 112.761 114.447 116.133 117.819 119.505 121.191 122.877 124.563 126.249 127.249 128.249 129.249 130.249 131.249 132.249 133.249 134.249 135.249 136.249 137.249 138.249 139.249 140.249 141.249 142.249 143.964 145.679 147.394 149.109 150.824 152.539 154.254 155.969 157.684 159.399 161.114 162.829 164.544 166.259 167.974 169.689 170.33 170.972 171.613 172.254 172.895 173.537 174.178 174.819 175.46 176.102 176.743 177.384 178.025 178.667 179.308 179.949 180.114 180.279 180.443 180.608 180.773 180.938 181.102 181.267 181.432 181.597 181.761 181.926 182.091 182.256 182.42 182.585 181.9 181.216 180.531 179.846 179.161 178.477 177.792 177.107 176.422 175.738 175.053 174.368 173.683 172.999 172.314 171.629 172.94 174.251 175.563 176.874 178.185 179.496 180.807 182.118 183.429 184.74 186.052 187.363 188.674 189.985 191.296 192.607 194.117 195.626 197.135 198.645 200.154 201.664 203.173 204.682 206.192 207.701 209.211 210.72 212.229 213.739 215.248 216.758 218.291 219.825 221.359 222.892 224.426 225.96 227.494 229.027 230.561 232.095 233.628 235.162 236.696 238.23 239.763 241.297 242.58 243.863 245.145 246.428 247.711 248.994 250.276 251.559 252.842 254.125 255.407 256.69 257.973 259.256 260.538 261.821 262.936 264.051 265.167 266.282 267.397 268.512 269.627 270.742 271.857 272.973 274.088 275.203 276.318 277.433 278.548 279.663 280.385 281.106 281.827 282.548 283.27 283.991 284.712 285.433 286.155 286.876 287.597 288.318 289.04 289.761 290.482 291.203 292.626 294.048 295.47 296.893 298.315 299.737 301.16 302.582 304.004 305.427 306.849 308.271 309.694 311.116 312.538 313.961 314.342 314.723 315.104 315.485 315.866 316.246 316.627 317.008 317.389 317.77 318.151 318.532 318.913 319.294 319.675 320.056 321.052 322.049 323.045 324.042 325.038 326.035 327.031 328.028 329.024 330.021 331.017 332.014 333.01 334.007 335.003 336
81.9923 83.2626 84.3579 85.4183 86.3046 87.5737 89.338 90.6902 92.0107 92.5801 94.0062 95.5394 96.3478 98.1466 99.4994 100.36 101.762 103.168 104.808 106.698 108.872 110.246 111.643 113.412 115.531 116.896 118.101 119.549 121.838 123.558 125.447 126.941 127.283 128.16 129.678 130.453 132.022 132.882 134.163 135.009 136.17 136.778 137.638 138.3 139.498 140.717 141.607 143.057 144.958 146.749 148.24 149.661 150.923 152.631 154.059 155.801 158.199 159.822 161.52 163.144 164.954 166.2 168.234 169.897 170.444 171.423 171.544 172.488 172.919 173.802 174.097 175.115 175.4 176.399 177.534 177.688 178.018 178.787 179.646 180.114 180.525 180.789 181.146 181.297 181.719 181.953 181.588 181.558 182.203 182.56 182.148 182.165 182.535 182.528 182.573 183.183 182.49 182.319 182.146 181.095 180.397 179.337 178.884 178.584 178.19 177.147 176.365 175.199 175.128 174.719 174.462 173.33 174.464 175.786 176.679 177.79 178.826 179.581 181.519 182.64 184.525 185.736 187.156 188.365 190.061 190.693 192.174 193.415 194.298 196.286 197.963 199.315 200.623 202.461 204.196 205.075 206.237 207.997 209.797 210.936 213.441 214.572 216.456 217.683 219.496 220.856 221.912 223.651 225.318 226.818 228.499 230.241 231.546 233.29 234.865 236.231 237.432 239.05 241.018 242.315 243.485 245.199 246.332 247.495 248.778 250.699 251.578 252.807 253.838 254.555 255.93 256.745 258.191 260.041 261.234 262.538 263.673 264.666 265.89 266.944 268.148 269.688 270.755 271.835 273.045 274.345 275.247 275.921 276.653 277.297 278.518 280.247 281.033 282.319 282.922 283.2 284.174 285.282 285.689 286.308 286.957 287.728 288.713 289.211 289.862 290.841 291.894 292.433 293.938 295.515 297.052 298.336 299.609 300.801 302.457 303.497 304.841 306.544 307.908 309.34 310.089 311.235 313.237 315.136 315.495 315.648 316.031 316.622 316.605 317.606 318.049 318.037 318.563 318.988 319.056 319.628 319.775 320.446 320.584 321.451 322.093 323.045 324.352 325.425 326.709 327.613 328.23 328.958 329.815 330.743 332.18 332.615 333.555 334.689 335.81 337
83.058 84.1161 85.0673 86.0184 86.9693 87.9201 89.832 91.744 92.4293 93.1146 94.8694 96.6241 98.0268 99.4295 100.438 101.446 102.568 103.69 105.534 107.379 109.241 111.104 112.584 114.063 115.862 117.66 118.626 119.593 121.916 124.239 125.936 127.633 127.852 128.07 129.364 130.657 132.086 133.515 134.641 135.768 136.538 137.308 137.829 138.35 139.768 141.185 142.525 143.864 145.842 147.819 149.015 150.212 151.468 152.723 154.178 155.633 157.939 160.244 161.851 163.459 164.799 166.14 168.123 170.106 170.99 171.875 172.299 172.723 173.395 174.068 174.74 175.412 176.054 176.696 177.344 177.991 178.449 178.907 179.593 180.279 180.789 181.3 181.643 181.985 182.477 182.969 182.409 181.85 182.686 183.523 182.963 182.404 182.602 182.8 183.29 183.781 183.601 183.422 182.883 182.344 181.27 180.196 180.129 180.061 179.309 178.557 177.294 176.031 176.235 176.439 175.735 175.03 176.175 177.32 178.013 178.707 179.187 179.666 181.414 183.161 184.947 186.732 188.05 189.367 190.384 191.401 192.812 194.222 195.584 196.945 198.466 199.986 201.622 203.258 204.363 205.468 206.881 208.293 209.722 211.151 213.278 215.404 217.006 218.608 220.248 221.887 223.148 224.409 226.043 227.677 229.566 231.455 232.971 234.486 235.893 237.301 238.586 239.871 241.602 243.334 244.934 246.535 247.549 248.563 250.484 252.405 253.23 254.054 254.52 254.986 255.893 256.799 258.813 260.826 262.041 263.256 264.268 265.281 266.443 267.606 269.235 270.864 271.896 272.928 274.323 275.717 276.178 276.639 276.899 277.16 278.996 280.831 282.181 283.532 283.691 283.851 285.212 286.573 286.878 287.183 287.882 288.58 289.342 290.103 291.013 291.922 292.792 293.663 295.323 296.982 298.38 299.779 300.821 301.864 303.138 304.412 306.037 307.662 309.035 310.409 310.882 311.354 313.833 316.311 316.442 316.573 317.166 317.76 318.363 318.966 319.016 319.066 319.636 320.206 320.464 320.723 321.161 321.599 322.223 322.846 323.444 324.042 325.425 326.809 328 329.191 329.539 329.888 330.676 331.464 332.34 333.216 334.293 335.37 336.685 338
84.2198 84.8627 86.0679 86.6186 88.068 89.2276 90.7378 92.7977 94.2076 94.7186 96.1284 97.7089 98.6323 100.318 101.289 102.533 103.238 104.935 106.958 108.059 110.049 111.579 113.507 114.715 116.257 117.591 118.512 119.637 122.391 124.294 126.16 128.325 128.583 129.056 129.928 130.861 132.318 133.845 135.147 136.528 137.145 137.588 137.922 138.4 140.164 141.575 143.53 144.672 146.448 148.108 149.632 150.763 151.797 153.015 154.3 155.465 157.143 159.968 161.919 163.773 164.949 166.723 168.602 170.314 171.241 171.866 172.382 172.957 174.047 174.333 174.855 175.708 176.744 176.998 177.913 178.295 178.785 179.255 180.341 180.443 181.071 181.643 181.737 182.673 183.129 182.933 182.6 182.141 182.567 183.09 182.563 182.643 183.382 183.364 183.603 184.378 184.506 184.165 183.895 183.593 182.823 182.062 181.663 181.538 180.245 179.456 178.177 176.862 176.983 177.251 176.757 176.731 177.712 178.403 178.59 179.623 180.251 181.019 182.352 183.683 185.099 187.26 188.287 190.369 190.888 192.503 193.975 195.03 196.586 197.764 199.391 200.657 202.109 203.524 204.795 205.861 207.656 208.606 210.258 211.367 213.397 215.712 217.709 219.533 220.579 222.539 223.837 225.167 226.99 228.791 230.689 232.67 233.407 235.574 237.394 238.37 239.847 241.138 242.662 244.352 245.452 247.284 247.935 249.63 251.707 253.014 254.089 255.302 255.056 255.858 256.645 256.854 258.633 260.813 261.944 263.973 265.064 266.045 267.325 268.268 270.112 271.443 272.965 274.021 275.406 276.156 276.729 277.357 277.996 278.598 280.151 281.415 282.042 283.554 283.972 284.503 285.549 286.808 287.351 288.057 289.163 289.495 290.215 290.996 292.099 292.964 293.997 294.893 296.682 298.188 299.868 301.221 302.337 303.159 304.453 305.327 306.894 308.528 310.238 311.478 312.47 313.479 315.522 317.486 317.649 317.96 318.391 318.897 319.1 319.773 319.508 320.095 321.185 321.112 322.005 321.819 322.423 322.937 323.628 324.242 325.678 325.824 326.904 328.193 328.838 329.926 330.23 330.817 331.54 332.273 333.091 333.816 335.118 336.289 337.493 339
84.8047 85.6093 86.414 87.2187 88.8769 90.5351 92.1933 93.8515 95.087 96.3226 97.5581 98.7936 100 101.207 102.413 103.62 104.9 106.18 107.46 108.74 110.397 112.053 113.71 115.366 116.445 117.523 118.602 119.68 122.015 124.349 126.683 129.017 129.529 130.041 130.553 131.065 132.621 134.176 135.732 137.287 137.578 137.869 138.16 138.451 140.208 141.965 143.722 145.48 146.938 148.397 149.856 151.315 152.31 153.306 154.302 155.297 157.495 159.693 161.89 164.088 165.696 167.305 168.914 170.522 171.189 171.857 172.524 173.191 173.894 174.597 175.301 176.004 176.653 177.301 177.95 178.598 179.101 179.603 180.106 180.608 181.297 181.985 182.673 183.362 183.13 182.897 182.665 182.432 182.545 182.657 182.77 182.882 183.405 183.929 184.452 184.976 184.942 184.909 184.875 184.842 184.385 183.928 183.472 183.015 181.685 180.354 179.024 177.693 177.878 178.062 178.247 178.432 178.959 179.486 180.013 180.54 181.456 182.372 183.288 184.204 185.996 187.787 189.579 191.371 192.487 193.604 194.721 195.838 197.21 198.582 199.955 201.327 202.559 203.791 205.022 206.254 207.586 208.919 210.251 211.583 213.802 216.021 218.239 220.458 221.825 223.192 224.559 225.925 227.915 229.904 231.894 233.884 235.272 236.661 238.05 239.439 240.922 242.405 243.887 245.37 246.702 248.034 249.366 250.698 252.161 253.624 255.087 256.55 256.64 256.729 256.819 256.909 258.854 260.799 262.745 264.69 265.75 266.81 267.87 268.93 270.476 272.022 273.568 275.114 275.854 276.594 277.334 278.075 279.056 280.037 281.018 281.999 282.788 283.577 284.365 285.154 286.099 287.043 287.988 288.932 289.671 290.41 291.149 291.889 292.947 294.006 295.064 296.123 297.758 299.394 301.029 302.664 303.559 304.453 305.348 306.243 307.819 309.395 310.971 312.547 314.075 315.604 317.132 318.661 319.004 319.348 319.691 320.035 320.307 320.579 320.851 321.124 321.571 322.019 322.467 322.914 323.595 324.276 324.956 325.637 326.622 327.607 328.591 329.576 330.119 330.662 331.204 331.747 332.415 333.082 333.75 334.417 335.813 337.209 338.604 340
85.9627 86.3115 87.3248 88.6723 89.5222 91.0657 92.8279 94.9053 96.4789 97.8927 98.7424 99.8493 100.869 101.486 103.12 104.706 106.427 107.682 108.835 109.797 111.628 113.189 114.662 116.017 117.08 117.935 119.349 120.98 123.581 125.92 127.858 129.709 130.3 130.557 131.473 132.312 133.872 135.324 136.942 138.047 137.607 138.286 139.127 139.967 141.723 143.198 144.602 146.287 147.363 148.4 149.805 151.403 152.125 152.987 153.96 155.129 157.147 159.141 161.295 163.813 165.457 167.772 169.094 170.73 171.562 171.586 172.746 173.461 173.964 174.176 174.762 176.3 176.835 177.472 177.714 178.756 179.733 180.003 180.611 180.773 181.627 182.132 182.341 183.13 183.081 183.129 182.465 182.724 182.715 182.815 182.746 183.532 183.684 184.255 184.695 185.574 185.47 185.916 186.242 185.667 184.684 184.538 185.153 184.492 182.953 181.939 181.01 180.039 180.036 179.503 180.256 180.132 180.712 181.103 181.328 181.845 182.332 183.655 184.122 184.725 186.048 188.135 190.25 191.698 193.398 194.442 195.942 196.645 198.288 200.022 200.919 201.857 203.076 204.169 205.207 206.647 207.936 209.352 210.643 212.685 214.886 217.014 219.553 221.383 222.607 224.221 225.387 227.306 229.262 231.56 233.227 235.098 235.752 237.458 238.788 240.602 242.055 243.386 244.895 246.389 248.37 249.155 250.558 251.896 254.09 255.557 256.929 257.798 258.059 258.817 258.914 258.819 260.621 261.623 263.305 265.407 266.188 267.235 268.964 270.078 271.682 273.508 274.805 276.207 276.993 278.057 278.282 279.033 279.559 280.553 281.541 282.582 283.39 284.478 285.318 285.961 287.083 287.621 288.607 289.807 290.981 291.516 292.112 293.101 293.99 295.18 296.723 297.353 299.366 301.009 302.647 303.366 304.429 305.516 306.804 307.158 309.247 311.064 312.669 313.568 315.563 317.064 318.153 319.836 320.082 320.609 320.835 321.101 321.216 321.69 321.921 322.152 322.693 323.638 323.373 324.243 325.205 326.227 326.734 327.032 327.377 328.519 329.768 330.518 331.119 331.488 332.269 332.677 333.406 334.501 334.874 335.746 336.863 338.389 339.757 341
86.5069 87.0137 88.5699 90.126 90.8612 91.5964 93.7777 95.959 97.7109 99.4628 100.184 100.905 101.335 101.765 103.779 105.793 107.489 109.185 110.02 110.854 112.589 114.324 115.496 116.668 117.508 118.348 120.313 122.279 124.885 127.491 128.946 130.401 130.736 131.072 132.316 133.56 135.016 136.473 137.639 138.806 138.754 138.702 140.093 141.484 142.957 144.431 145.763 147.095 147.749 148.403 149.947 151.491 152.08 152.669 153.815 154.961 156.775 158.589 161.064 163.539 165.889 168.239 169.589 170.939 171.128 171.316 172.524 173.732 173.743 173.755 175.176 176.596 177.119 177.642 178.278 178.913 179.658 180.404 180.671 180.938 181.609 182.28 182.588 182.897 183.129 183.362 183.188 183.015 182.993 182.972 183.577 184.182 184.382 184.582 185.376 186.171 186.547 186.923 186.708 186.493 185.82 185.147 185.558 185.969 184.746 183.523 182.954 182.386 181.665 180.944 181.389 181.833 182.276 182.72 182.935 183.151 184.045 184.938 185.093 185.247 186.865 188.483 190.254 192.025 193.653 195.281 196.367 197.453 199.458 201.462 201.925 202.387 203.467 204.548 205.794 207.04 208.413 209.786 211.787 213.788 215.897 218.007 220.158 222.308 223.78 225.251 226.969 228.687 230.952 233.216 234.764 236.312 237.283 238.254 240.01 241.765 243.066 244.367 245.887 247.407 248.841 250.275 251.685 253.095 255.293 257.49 258.268 259.045 259.975 260.905 260.817 260.729 261.588 262.447 264.286 266.125 266.892 267.66 269.443 271.226 273.11 274.994 276.147 277.3 278.41 279.519 279.756 279.992 280.531 281.07 282.118 283.166 284.273 285.38 286.074 286.768 287.484 288.199 289.44 290.681 291.651 292.621 293.467 294.313 295.333 296.354 297.469 298.583 300.603 302.623 303.346 304.069 305.324 306.579 307.326 308.073 310.403 312.734 313.661 314.589 316.556 318.524 319.767 321.011 321.44 321.87 322.018 322.167 322.484 322.802 322.991 323.181 324.22 325.258 325.415 325.571 326.875 328.179 328.303 328.427 328.929 329.431 330.445 331.459 331.887 332.314 332.961 333.607 334.763 335.919 336.497 337.075 338.322 339.569 340.785 342
87.5679 88.7652 89.974 91.5796 92.5003 93.5732 94.9066 97.0128 98.6807 100.002 101.279 101.961 102.656 103.628 105.334 106.88 108.43 109.826 110.936 111.912 113.73 114.897 116.235 117.32 118.782 119.886 121.539 123.578 125.769 127.911 129.715 131.093 131.841 132.496 133.231 134.807 136.265 137.331 138.524 139.566 139.901 140.562 141.579 143.001 144.137 145.522 147.23 147.902 148.446 149.296 150.864 151.579 151.911 152.908 154.021 154.793 156.552 158.699 160.79 163.265 165.348 167.706 169.577 171.147 171.887 172.065 172.802 174.002 174.892 174.743 175.837 176.893 177.708 177.925 178.09 179.071 180.137 180.326 180.562 181.102 181.87 182.065 182.133 182.665 183.062 183.188 183.145 183.306 183.099 183.756 184.521 184.832 185.116 185.503 186.253 186.769 187.052 187.34 187.425 187.319 187.246 186.841 186.906 187.446 186.91 185.762 185.63 184.732 184.245 183.55 183.432 183.533 184.183 184.109 184.313 184.456 185.139 185.482 185.655 185.768 187.828 188.984 190.775 192.352 193.608 195.577 196.874 198.26 200.025 201.36 202.054 202.917 203.674 205.092 206.634 207.433 209.087 210.848 212.781 214.89 217.038 219.041 221.118 223.233 224.931 226.527 228.271 230.068 231.891 234.155 235.83 237.526 238.689 239.835 241.172 242.928 244.129 245.567 246.7 248.425 249.883 251.372 252.97 254.293 256.189 258.003 259.409 260.293 261.201 261.975 262.073 262.64 263.727 264.251 265.266 266.842 267.812 269.1 270.419 272.374 273.813 275.749 277.388 278.393 279.294 280.108 280.79 280.951 281.476 282.096 282.971 283.75 284.587 285.869 286.736 287.575 288.463 289.303 290.581 291.556 292.88 293.602 294.152 295.525 296.892 297.622 298.926 299.813 301.236 302.941 303.792 304.771 306.284 307.134 307.939 308.988 311.196 313 314.368 315.611 317.732 319.26 320.657 322.186 322.633 322.85 323.043 323.233 323.51 323.785 323.796 324.21 325.057 325.996 326.183 326.9 328.287 328.951 329.498 329.823 330.504 330.855 331.552 332.401 333.133 333.359 333.619 334.536 336.032 336.76 337.373 338.404 339.399 340.718 341.761 343
89.2583 90.5166 91.775 93.0333 94.2916 95.5499 96.8083 98.0666 99.3041 100.542 101.779 103.016 104.254 105.491 106.729 107.966 109.217 110.467 111.718 112.969 114.219 115.47 116.72 117.971 119.698 121.424 123.151 124.878 126.604 128.331 130.058 131.785 132.852 133.92 134.987 136.055 137.122 138.19 139.258 140.325 141.373 142.421 143.469 144.518 145.566 146.614 147.662 148.71 149.449 150.189 150.928 151.668 152.407 153.146 153.886 154.625 156.716 158.808 160.899 162.99 165.082 167.173 169.264 171.355 172.084 172.814 173.543 174.272 175.001 175.73 176.46 177.189 177.699 178.208 178.718 179.228 179.738 180.247 180.757 181.267 181.558 181.85 182.141 182.432 182.724 183.015 183.306 183.598 184.069 184.54 185.011 185.482 185.953 186.425 186.896 187.367 187.561 187.756 187.951 188.145 188.34 188.534 188.729 188.923 188.462 188.001 187.54 187.079 186.617 186.156 185.695 185.234 185.366 185.498 185.63 185.762 185.894 186.026 186.158 186.29 187.887 189.484 191.082 192.679 194.276 195.873 197.471 199.068 200.163 201.257 202.352 203.447 204.542 205.637 206.731 207.826 209.868 211.909 213.951 215.992 218.034 220.075 222.117 224.158 225.981 227.804 229.626 231.449 233.272 235.094 236.917 238.74 240.078 241.416 242.754 244.092 245.43 246.768 248.105 249.443 250.956 252.468 253.98 255.492 257.004 258.516 260.029 261.541 262.293 263.045 263.798 264.55 265.302 266.054 266.807 267.559 269.05 270.541 272.031 273.522 275.013 276.504 277.995 279.486 280.092 280.698 281.304 281.91 282.516 283.122 283.728 284.334 285.346 286.358 287.37 288.382 289.394 290.406 291.418 292.431 293.507 294.584 295.66 296.737 297.813 298.89 299.966 301.043 302.15 303.258 304.365 305.473 306.58 307.688 308.795 309.903 311.585 313.267 314.95 316.632 318.314 319.996 321.678 323.361 323.595 323.83 324.065 324.3 324.534 324.769 325.004 325.239 325.986 326.734 327.481 328.228 328.976 329.723 330.471 331.218 331.749 332.28 332.811 333.342 333.873 334.404 334.935 335.466 336.533 337.6 338.666 339.733 340.8 341.867 342.933 344
90.2759 91.5099 92.1246 93.1973 94.4276 95.8892 97.7762 99.0995 100.45 101.963 103.117 104.121 104.888 106.076 107.625 109.053 109.795 111.287 112.661 113.892 114.984 116.618 118.099 119.098 120.593 121.946 124.209 125.58 127.827 128.919 130.746 132.476 133.262 134.488 135.769 136.726 137.77 139.114 140.133 141.065 142.099 142.18 143.647 144.873 146.028 146.893 148.339 149.518 150.388 150.729 151.707 152.508 153.115 153.184 154.262 155.809 157.579 159.531 161.836 163.745 165.358 167.05 169.049 171.564 172.087 173.201 174.15 175.259 175.874 176.807 177.16 177.266 178.242 178.937 179.527 179.312 180.216 180.639 180.672 181.432 181.344 182.279 182.39 182.115 182.489 182.828 182.987 184.069 185.069 185.522 185.445 185.838 187.212 187.225 187.577 187.965 188.296 188.545 188.672 188.96 188.867 189.031 189.17 189.745 189.413 189.185 189.202 188.62 188.316 187.882 187.328 186.935 187.304 187.339 186.859 187.266 187.865 187.798 187.916 188.277 189.571 191.207 192.449 194.098 195.669 197.137 198.576 199.876 201.325 202.607 203.57 204.677 205.432 207.132 208.256 209.166 211.137 212.561 215.165 216.792 219.155 220.966 222.676 225.084 227.363 229.075 230.696 232.361 234.087 236.046 237.623 239.469 240.322 242.294 243.229 244.944 246.269 247.485 248.88 250.462 252.26 253.176 254.796 256.018 257.452 259.123 260.378 262.029 263.445 264.767 265.552 265.854 267.098 267.402 267.85 268.276 269.808 271.102 272.577 274.05 275.59 276.416 278.185 279.694 280.126 281.373 281.757 282.327 282.957 283.173 283.824 284.918 286.195 287.133 288.231 289.207 290.593 291.946 292.997 293.37 294.344 296.204 297.34 298.273 299.263 300.826 301.886 302.273 302.941 303.998 305.195 306.697 307.842 309.21 310.173 311.393 312.758 313.727 315.68 317.186 318.881 320.441 322.646 324.535 324.419 324.185 324.746 325.141 325.101 325.571 326.262 326.78 328.078 329.189 330.035 330.562 330.419 331.329 332.022 332.613 333.108 333.686 334.698 334.978 335.461 335.662 336.428 336.932 337.82 339.247 340.316 341.09 342.06 343.076 344.119 345
91.2516 92.5033 92.9323 93.3613 94.7949 96.2284 98.1804 100.132 101.758 103.384 104.305 105.226 105.943 106.66 108.4 110.14 111.123 112.107 113.461 114.815 116.29 117.766 118.996 120.226 121.347 122.468 124.375 126.282 127.895 129.507 131.338 133.168 134.112 135.056 136.227 137.397 138.718 140.039 140.922 141.805 141.872 141.939 143.584 145.228 146.2 147.172 148.748 150.325 150.797 151.27 152.309 153.348 153.285 153.223 155.108 156.993 158.624 160.254 162.377 164.499 165.713 166.928 169.35 171.772 172.68 173.589 174.917 176.246 177.065 177.885 177.613 177.342 178.504 179.666 179.531 179.397 180.214 181.031 181.314 181.597 182.152 182.708 182.253 181.798 182.219 182.641 183.59 184.54 185.522 186.504 186.348 186.193 187.109 188.025 188.294 188.562 188.948 189.334 189.554 189.774 189.651 189.527 190.047 190.566 190.467 190.369 190.265 190.161 189.885 189.609 189.122 188.635 188.908 189.18 188.975 188.771 189.171 189.571 189.917 190.263 191.596 192.929 194.223 195.517 196.958 198.4 199.541 200.683 202.32 203.957 204.932 205.907 207.267 208.627 209.566 210.506 211.86 213.214 215.403 217.592 219.724 221.856 223.932 226.009 228.177 230.346 231.809 233.272 235.135 236.998 238.598 240.199 241.685 243.172 244.484 245.796 246.999 248.202 249.841 251.48 252.683 253.885 255.215 256.545 258.137 259.729 261.123 262.516 264.503 266.489 266.824 267.159 267.954 268.749 268.871 268.994 270.329 271.664 273.121 274.578 275.453 276.328 278.115 279.902 280.975 282.048 282.396 282.744 282.984 283.224 284.362 285.501 286.704 287.907 288.97 290.033 291.759 293.486 293.898 294.309 296.066 297.824 298.817 299.81 301.286 302.762 303.132 303.503 304.12 304.737 306.329 307.921 309.326 310.732 311.807 312.883 313.534 314.186 315.963 317.74 319.313 320.886 323.298 325.71 325.126 324.541 325.262 325.982 326.177 326.372 327.347 328.322 329.983 331.644 332.27 332.895 332.915 332.935 333.472 334.009 334.55 335.092 335.853 336.615 336.767 336.919 337.658 338.397 339.646 340.895 341.671 342.447 343.367 344.286 345.143 346
91.9293 92.674 92.834 93.5254 95.1869 97.0861 99.3638 101.165 102.004 104.1 105.395 106.33 106.953 108.267 110.029 111.226 112.072 113.297 114.901 115.738 117.566 118.668 119.728 121.353 122.421 123.776 125.376 126.984 128.966 130.313 132.168 133.86 134.748 135.851 137.272 138.068 139.341 140.526 141.621 142.545 143.017 143.276 144.433 145.583 147.106 148.056 149.511 151.133 151.584 152.377 153.567 154.188 154.942 155.208 156.756 158.177 159.327 161.469 162.842 165.253 166.47 168.013 169.922 171.98 173.168 174.396 176.159 177.233 177.433 177.871 177.633 177.419 178.408 179.098 179.35 179.481 180.334 180.888 180.425 181.761 182.247 182.126 181.447 181.48 182.85 182.982 183.842 185.011 185.849 186.348 186.467 186.549 187.053 188.178 188.025 189.16 190.059 189.957 190.145 190.589 190.729 190.667 190.836 191.387 191.05 191.547 191.824 191.701 191.101 191.124 190.746 190.336 190.322 190.544 190.526 190.275 191.195 191.289 191.737 192.25 193.155 194.612 195.845 196.935 199.064 199.363 200.831 201.491 202.789 204.645 206.038 207.136 208.454 209.701 210.396 211.845 213.497 214.701 216.384 218.392 220.468 222.69 225.046 226.934 229.194 230.912 232.361 234.184 235.597 237.687 239.311 240.928 242.503 243.875 245.636 246.649 248.247 249.355 251.36 252.498 253.337 254.721 255.886 257.071 258.571 260.137 261.443 263.004 265.125 266.559 267.598 268.463 269.409 269.424 269.886 269.711 271.381 272.347 273.727 275.106 276.239 277.152 278.886 280.11 281 281.998 282.51 283.161 283.668 284.174 285.248 286.085 287.321 288.542 289.775 290.858 292.12 293.711 294.472 295.248 296.889 298.679 299.847 301.347 302.486 303.593 304.111 304.733 305.663 306.452 308.067 309.145 310.44 311.924 313.381 314.372 314.944 315.77 317.076 318.294 320.768 322.17 324.643 326.885 326.937 326.202 326.685 326.824 327.287 327.953 329.296 329.863 331.424 333.064 334.141 335.229 335.831 335.058 335.053 335.404 335.961 336.717 337.048 338.251 338.97 338.763 339.47 339.863 340.78 342.07 342.852 343.804 344.126 345.433 345.992 347
92.4223 92.8447 93.267 93.6894 95.8166 97.9438 100.071 102.198 103.507 104.817 106.126 107.435 108.654 109.874 111.094 112.313 113.4 114.487 115.574 116.661 118.116 119.571 121.026 122.48 123.782 125.084 126.385 127.687 129.403 131.119 132.836 134.552 135.599 136.646 137.693 138.74 139.876 141.012 142.149 143.285 143.949 144.612 145.275 145.939 147.439 148.939 150.44 151.94 152.712 153.484 154.256 155.028 156.111 157.194 158.278 159.361 161.022 162.684 164.346 166.008 167.553 169.098 170.643 172.188 173.696 175.204 176.712 178.219 178.039 177.858 177.677 177.496 178.013 178.531 179.048 179.565 180.155 180.746 181.336 181.926 181.735 181.545 181.354 181.163 182.243 183.323 184.402 185.482 185.838 186.193 186.549 186.904 187.618 188.331 189.044 189.758 190.169 190.581 190.992 191.404 191.605 191.806 192.007 192.209 192.467 192.725 192.984 193.242 192.941 192.639 192.338 192.036 191.972 191.908 191.844 191.78 192.394 193.008 193.622 194.237 195.266 196.296 197.325 198.354 199.34 200.326 201.312 202.298 203.815 205.332 206.849 208.366 209.571 210.776 211.98 213.185 214.687 216.188 217.69 219.191 221.358 223.525 225.692 227.859 229.668 231.477 233.286 235.095 236.736 238.376 240.017 241.657 243.118 244.579 246.04 247.501 249.005 250.509 252.013 253.517 254.537 255.557 256.578 257.598 259.071 260.545 262.018 263.492 265.061 266.63 268.199 269.767 269.933 270.098 270.263 270.428 271.729 273.031 274.332 275.634 276.805 277.976 279.147 280.318 281.133 281.948 282.763 283.578 284.351 285.124 285.896 286.669 287.923 289.176 290.43 291.683 292.809 293.935 295.061 296.187 297.861 299.535 301.209 302.884 303.653 304.423 305.193 305.963 307.064 308.166 309.267 310.369 311.742 313.116 314.489 315.862 316.609 317.355 318.101 318.848 321.151 323.454 325.757 328.06 327.962 327.863 327.764 327.665 328.6 329.535 330.47 331.404 332.944 334.483 336.023 337.562 337.372 337.181 336.99 336.799 337.571 338.343 339.115 339.887 340.247 340.608 340.968 341.328 342.286 343.245 344.203 345.161 345.871 346.58 347.29 348
93.6513 94.5731 95.1206 95.5583 97.7013 99.6741 101.557 103.231 104.397 105.75 106.849 108.45 109.376 110.542 112.572 113.4 114.508 115.617 116.468 117.952 119.291 120.279 121.867 123.608 124.838 126.159 127.62 128.804 130.366 132.082 133.749 135.244 136.698 137.294 138.267 139.5 140.69 141.455 142.941 144.025 144.752 145.268 146.66 147.131 148.474 149.78 151.524 152.748 154.144 155.065 156.022 156.18 157.591 158.897 160.117 160.544 162.262 163.688 165.407 166.646 168.247 169.192 170.946 172.397 173.495 174.615 176.278 177.518 177.734 177.56 177.715 177.573 178.56 179.164 179.173 179.723 180.706 181.262 181.704 182.091 182.293 181.631 181.777 182.116 183.175 184.298 185.009 185.953 186.947 186.767 187.372 187.618 188.106 188.43 189.388 190.356 190.695 191.403 191.622 192.008 192.597 193.004 193.294 193.03 193.269 193.77 193.836 194.223 194.039 194.258 194.189 193.737 193.988 193.158 193.623 193.962 194.715 195.436 196.321 196.224 197.866 198.695 198.964 199.73 200.843 201.254 202.07 203.106 204.6 205.558 207.738 209.284 210.137 211.525 213.148 214.525 215.744 217.442 218.591 220.656 222.612 224.94 226.852 228.784 230.803 232.153 234.068 235.838 237.081 238.326 240.459 242.387 243.956 244.833 246.617 248.396 249.531 251.354 253.054 254.535 255.521 256.274 257.38 258.578 259.844 261.15 262.532 263.98 264.922 266.392 267.987 269.668 270.328 270.965 270.786 271.145 272.29 273.474 274.848 276.031 277.653 278.779 279.844 280.526 281.627 282.296 283.086 283.953 285.034 285.672 286.079 287.253 288.46 290.075 290.949 292.381 293.426 294.307 296.134 297.126 299.448 300.797 302.371 303.516 304.228 305.403 306.56 307.192 308.77 310.307 310.962 311.865 313.654 314.755 315.945 317.352 318.821 319.876 320.548 320.959 322.788 324.821 326.685 329.235 329.313 330.149 330.021 329.54 330.403 330.828 331.942 332.946 334.386 335.79 336.964 338.166 338.742 338.452 338.289 338.194 339.034 339.739 340.709 341.111 341.6 342.034 342.662 342.794 344.016 345.048 345.532 346.269 346.588 347.619 348.375 349
95.1508 96.3015 96.8643 97.4272 99.4158 101.404 102.834 104.264 105.474 106.684 108.074 109.465 110.338 111.21 112.848 114.487 115.617 116.748 117.995 119.243 120.115 120.987 122.861 124.735 125.984 127.234 128.577 129.921 131.483 133.045 134.49 135.936 136.939 137.943 139.102 140.261 141.079 141.897 143.331 144.765 145.345 145.924 147.124 148.323 149.472 150.621 152.088 153.555 155.101 156.646 156.988 157.331 158.965 160.599 161.164 161.728 163.21 164.691 165.987 167.283 168.285 169.287 170.946 172.605 173.316 174.027 175.421 176.816 177.039 177.262 177.456 177.65 178.723 179.797 179.839 179.88 180.829 181.778 182.017 182.256 181.986 181.717 182.393 183.07 184.171 185.272 185.848 186.425 186.883 187.341 187.836 188.331 188.43 188.53 189.742 190.953 191.59 192.226 192.419 192.612 193.408 194.203 194.027 193.851 194.333 194.814 195.009 195.204 195.54 195.876 195.657 195.438 194.923 194.409 195.277 196.145 197.005 197.864 198.037 198.21 199.653 201.095 201.1 201.105 201.644 202.182 203.048 203.914 204.849 205.784 207.993 210.201 211.238 212.275 214.07 215.865 217.28 218.696 220.409 222.122 224.239 226.356 228.032 229.709 231.269 232.829 234.705 236.581 237.428 238.275 240.695 243.116 244.101 245.087 247.189 249.292 250.745 252.199 253.876 255.553 256.272 256.991 258.274 259.557 260.656 261.755 263.112 264.468 265.311 266.154 267.862 269.569 270.701 271.833 271.848 271.862 272.89 273.917 275.173 276.429 278.005 279.582 280.158 280.734 281.689 282.644 283.486 284.328 285.274 286.221 287.029 287.837 289.405 290.974 292.026 293.078 293.878 294.678 296.372 298.065 300.062 302.059 303.104 304.148 305.265 306.382 307.402 308.422 310.435 312.449 312.904 313.36 314.877 316.394 317.618 318.842 320.619 322.397 322.733 323.069 324.629 326.188 328.299 330.41 331.423 332.436 331.925 331.415 331.768 332.121 333.304 334.487 335.792 337.096 337.933 338.769 339.246 339.723 339.656 339.59 340.362 341.135 341.735 342.336 342.898 343.46 343.86 344.259 345.555 346.851 347.115 347.378 348.018 348.658 349.329 350
96.3269 97.442 98.3176 99.2961 100.609 102.576 104.396 105.297 106.713 107.798 108.976 110.48 111.581 112.644 113.921 115.573 116.625 117.995 119.451 120.534 121.565 122.697 124.258 125.863 126.959 128.403 129.88 131.038 132.518 133.891 135.735 136.628 137.783 138.747 139.651 141.022 141.837 142.956 144.298 145.505 146.77 147.2 148.714 149.516 150.297 151.78 153.129 154.363 155.566 157.024 158.191 158.482 159.492 161.232 162.068 162.912 164.469 165.509 166.972 167.921 168.888 170.038 171.312 172.813 173.521 174.122 175.093 176.114 176.2 176.935 176.887 177.726 178.34 179.398 179.687 180.037 180.367 181.584 182.111 182.42 182.599 182.749 183.544 184.023 184.877 185.722 186.188 186.896 187.248 187.952 188.723 189.044 189.233 189.742 190.432 191.551 191.886 192.606 192.499 193.217 193.834 194.43 194.585 194.672 195.224 195.572 195.759 196.185 196.071 196.939 197.55 197.138 197.096 197.042 197.881 198.328 198.778 199.606 199.938 200.197 201.044 202.058 202.175 202.481 203.198 203.437 204.622 204.721 206.036 207.283 208.837 211.119 212.573 213.783 215.776 217.204 219.485 220.247 221.853 223.587 225.134 227.33 228.88 230.634 232.588 233.821 235.568 237.324 238.112 239.798 242.184 243.845 245.629 246.458 248.184 250.187 252.046 253.267 255.251 256.572 257.648 258.272 259.518 260.537 261.892 262.618 263.867 264.956 265.998 266.781 268.743 269.469 270.25 271.583 272.323 272.58 273.399 274.589 275.368 276.826 277.893 279.385 279.999 280.942 281.536 282.879 283.612 284.703 285.795 286.631 286.941 288.42 290.417 291.357 291.987 293.776 294.449 295.943 297.287 299.004 300.484 302.369 303.436 304.78 305.941 307.265 308.26 309.652 311.782 313.033 313.848 314.856 316.475 317.74 319.289 320.331 321.921 323.476 324.243 325.18 326.726 328.107 329.925 331.585 332.718 333.199 332.835 333.29 333.801 334.244 335.209 336.029 337.563 337.935 338.803 339.372 340.165 340.45 340.368 340.985 341.719 342.359 342.669 343.561 343.943 344.724 345.624 345.725 346.841 347.622 348.242 348.487 349.32 349.728 350.672 351
97.2912 98.5825 99.8737 101.165 102.456 103.747 105.039 106.33 107.621 108.912 110.204 111.495 112.786 114.077 115.369 116.66 117.951 119.242 120.534 121.825 123.116 124.407 125.699 126.99 128.281 129.572 130.864 132.155 133.446 134.737 136.029 137.32 138.436 139.551 140.667 141.783 142.898 144.014 145.13 146.245 147.361 148.477 149.592 150.708 151.824 152.939 154.055 155.171 156.286 157.402 158.518 159.633 160.749 161.865 162.98 164.096 165.212 166.327 167.443 168.559 169.674 170.79 171.906 173.021 173.619 174.217 174.815 175.412 176.01 176.608 177.205 177.803 178.401 178.999 179.596 180.194 180.792 181.39 181.987 182.585 183.183 183.781 184.378 184.976 185.574 186.171 186.769 187.367 187.965 188.562 189.16 189.758 190.356 190.953 191.551 192.149 192.567 192.985 193.403 193.821 194.239 194.657 195.076 195.494 195.912 196.33 196.748 197.166 197.584 198.002 198.421 198.839 199.257 199.675 200.093 200.511 200.929 201.347 201.766 202.184 202.602 203.02 203.438 203.856 204.274 204.692 205.111 205.529 207.156 208.783 210.409 212.036 213.663 215.29 216.917 218.544 220.171 221.798 223.425 225.052 226.679 228.305 229.932 231.559 233.186 234.813 236.44 238.067 239.694 241.321 242.948 244.575 246.201 247.828 249.455 251.082 252.709 254.336 255.963 257.59 258.572 259.553 260.535 261.517 262.498 263.48 264.462 265.443 266.425 267.407 268.388 269.37 270.352 271.334 272.315 273.297 274.279 275.26 276.242 277.224 278.206 279.187 280.169 281.151 282.132 283.114 284.096 285.077 286.059 287.041 288.023 289.004 290.372 291.739 293.106 294.474 295.841 297.208 298.576 299.943 301.311 302.678 304.045 305.413 306.78 308.147 309.515 310.882 312.25 313.617 314.984 316.352 317.719 319.086 320.454 321.821 323.189 324.556 325.923 327.291 328.658 330.026 331.393 332.76 333.362 333.963 334.564 335.165 335.766 336.368 336.969 337.57 338.171 338.773 339.374 339.975 340.576 341.178 341.779 342.38 342.981 343.583 344.184 344.785 345.386 345.988 346.589 347.19 347.791 348.393 348.994 349.595 350.196 350.798 351.399 352
98.4113 99.9258 100.851 102.538 103.554 105.482 106.74 108.017 109.069 110.61 111.697 112.828 113.841 114.803 116.132 118.101 119.333 120.689 121.725 122.798 124.183 125.525 127.014 127.692 128.86 130.548 132.513 133.653 135.208 136.144 136.906 137.836 138.769 140.107 141.21 142.812 144.268 145.07 145.998 147.297 148.661 149.712 150.709 152.169 152.834 153.748 154.535 156.065 157.105 158.018 158.863 159.831 160.911 162.304 163.157 164.154 165.16 165.983 167.719 169.174 169.956 170.803 172.234 173.23 173.801 174.74 175.213 175.714 176.184 176.595 177.692 178.303 179.598 180.437 180.919 181.415 182.043 182.01 182.783 183.465 184.118 184.661 185.848 186.315 186.828 187.403 188.135 187.96 188.625 188.881 189.571 190.523 191.172 191.701 192.176 192.567 192.664 193.068 193.547 194.085 195.392 195.039 195.394 195.676 196.386 196.36 196.93 197.505 196.983 197.758 198.359 199.367 200.029 200.365 200.542 201.44 201.759 201.919 203.316 204.027 204.344 204.734 205.371 204.877 205.527 205.906 205.76 206.336 207.046 209.003 211.021 212.72 214.451 216.102 218.084 219.749 221.317 222.423 224.191 225.444 227.016 228.462 229.815 231.898 233.749 235.729 237.036 238.923 240.299 242.144 243.888 245.482 246.907 248.478 249.817 251.517 253.346 255.163 256.548 257.963 258.953 259.969 261.092 262.121 263.255 264.136 264.84 266.413 267.496 268.082 269.232 270.582 270.86 271.95 272.885 273.915 274.61 275.799 276.919 278.328 278.661 280.056 281.463 282.53 283.661 283.963 284.708 285.402 287.08 288.311 288.901 289.588 291.546 292.503 294.447 295.951 297.449 298.643 299.627 301.016 301.639 303.073 304.768 306.384 308.225 309.403 310.723 311.573 312.741 313.661 315.51 317.102 318.289 320.201 321.051 322.319 323.797 325.486 327.215 327.84 329.171 330.551 331.477 333.169 333.534 334.777 336.073 336.542 337.299 337.581 337.794 337.964 338.678 339.517 340.281 340.585 341.296 341.633 342.292 342.95 343.188 343.382 343.629 344.372 344.778 345.631 345.916 347.151 347.633 348.837 349.036 349.744 350.881 351.866 352.591 353
99.6346 101.269 102.59 103.911 105.564 107.216 108.46 109.704 111.006 112.307 113.234 114.161 114.845 115.528 117.535 119.542 120.839 122.136 122.953 123.77 125.206 126.642 127.518 128.394 129.958 131.523 133.337 135.152 136.351 137.551 137.952 138.353 139.508 140.664 142.252 143.841 144.984 146.126 147.237 148.348 149.648 150.947 152.288 153.629 154.093 154.557 155.758 156.96 157.797 158.635 159.332 160.029 161.386 162.744 163.478 164.212 164.925 165.638 167.714 169.79 170.303 170.816 172.127 173.438 174.35 175.263 175.639 176.015 176.299 176.582 177.692 178.803 180.339 181.875 182.255 182.635 182.632 182.63 183.487 184.345 184.943 185.541 186.598 187.655 188.145 188.635 188.594 188.553 188.876 189.2 190.244 191.287 191.868 192.449 192.717 192.985 193.068 193.152 193.75 194.349 194.885 195.42 195.639 195.858 196.124 196.39 197.117 197.844 197.679 197.514 198.705 199.895 200.475 201.055 201.712 202.369 202.429 202.49 204.18 205.87 206.159 206.449 206.174 205.898 206.509 207.12 207.132 207.144 208.184 209.223 211.313 213.403 215.158 216.914 218.934 220.954 222.001 223.049 224.443 225.837 227.228 228.619 230.428 232.236 234.44 236.644 238.212 239.78 241.373 242.967 244.679 246.39 247.759 249.127 250.539 251.951 253.97 255.989 257.163 258.336 259.36 260.384 261.554 262.725 263.759 264.793 266.088 267.384 268.071 268.758 270.276 271.794 272.18 272.567 273.55 274.533 275.435 276.338 277.885 279.431 280.178 280.924 282.417 283.909 284.36 284.811 285.269 285.727 287.654 289.581 289.877 290.172 291.72 293.267 295.347 297.428 298.752 300.077 301.082 302.088 302.778 303.467 305.411 307.355 309.006 310.658 311.461 312.264 312.984 313.704 315.779 317.853 319.584 321.315 322.066 322.816 324.616 326.417 327.402 328.388 329.732 331.076 332.327 333.578 334.585 335.592 336.755 337.919 338.357 338.795 338.577 338.358 339.31 340.261 340.728 341.195 341.642 342.088 342.804 343.52 343.35 343.181 343.57 343.959 344.617 345.275 346.193 347.112 348.196 349.281 349.587 349.893 351.414 352.935 353.467 354
100.151 102.299 103.759 105.284 106.907 108.542 110.065 111.391 112.346 113.63 114.787 115.495 116.498 117.577 119.795 120.984 122.272 123.103 124.079 124.743 125.507 127.199 127.646 129.096 131.093 132.748 134.629 136.65 137.481 138.159 138.685 138.869 139.617 141.653 143.345 144.871 146.427 147.151 148.668 149.4 150.482 152.224 153.787 155.09 155.776 156.103 157.118 157.854 157.945 159.111 159.542 160.227 161.683 162.56 163.482 164.269 165.874 166.656 168.516 170.405 171.17 171.627 172.434 173.646 174.519 175.25 175.76 176.317 176.91 177.396 178.09 179.302 180.712 182.157 182.889 183.855 183.767 184.11 184.831 185.224 186.022 186.88 187.601 188.994 188.871 189.335 188.876 189.145 189.643 190.239 191.153 192.052 192.452 192.884 193.041 193.403 193.338 193.75 194.476 194.613 195.157 195.485 195.976 196.04 196.304 196.881 197.847 198.183 198.2 198.626 199.524 200.424 200.643 201.822 202.357 203.298 204.134 204.69 206.451 207.713 208.325 207.598 207.028 206.919 207.255 207.735 207.918 207.951 209.419 210.494 212.317 214.086 215.904 217.99 219.927 222.159 223.085 224.021 225.2 226.23 227.557 229.194 231.155 232.575 234.48 236.923 238.978 240.636 242.485 243.908 245.698 247.298 248.295 249.82 250.91 252.386 254.238 255.97 257.052 258.709 259.782 260.946 262.512 263.329 264.329 265.711 266.895 268.354 269.24 270.264 271.786 273.006 273.623 273.78 274.522 275.151 276.248 277.521 279.208 280.535 281.817 282.539 284.07 285.288 285.352 285.667 286.359 286.052 287.639 289.22 289.982 290.756 292.26 294.564 296.484 298.905 299.923 301.192 302.273 303.161 304.218 305.116 307.028 308.326 309.596 311.065 311.701 312.955 314.113 315.102 316.869 318.603 320.227 321.449 322.487 323.314 324.763 326.533 327.727 328.937 329.944 331.508 332.504 333.987 335.397 336.563 337.965 339.295 339.318 339.352 339.063 338.752 339.782 340.521 341.342 341.805 342.728 342.813 343.543 344.09 343.928 343.539 343.402 343.547 344.506 345.179 345.937 347.072 348.136 348.947 349.449 350.043 351.577 353.015 354.114 355
101.664 103.329 104.993 106.658 108.263 109.868 111.473 113.078 114.015 114.953 115.89 116.828 118.227 119.626 121.026 122.425 123.247 124.07 124.893 125.716 126.736 127.757 128.777 129.798 131.885 133.973 136.061 138.149 138.458 138.767 139.076 139.385 141.014 142.643 144.271 145.9 147.038 148.176 149.314 150.451 151.976 153.501 155.026 156.551 157.1 157.65 158.199 158.749 159.168 159.587 160.006 160.425 161.401 162.376 163.352 164.327 166.001 167.674 169.347 171.021 171.729 172.438 173.146 173.854 174.545 175.236 175.928 176.619 177.414 178.21 179.006 179.802 181.12 182.439 183.757 185.076 185.333 185.59 185.847 186.104 187.161 188.219 189.276 190.333 190.184 190.036 189.887 189.738 190.508 191.277 192.047 192.817 193.068 193.319 193.57 193.821 194.085 194.349 194.613 194.877 195.213 195.549 195.886 196.222 196.797 197.372 197.946 198.521 199.129 199.737 200.344 200.952 201.771 202.589 203.408 204.227 205.559 206.891 208.223 209.556 209.152 208.748 208.344 207.94 208.145 208.35 208.554 208.759 210.262 211.764 213.267 214.769 216.918 219.066 221.215 223.363 224.178 224.993 225.808 226.623 228.196 229.768 231.341 232.913 235.058 237.203 239.348 241.492 243.171 244.849 246.528 248.206 249.36 250.513 251.667 252.82 254.386 255.951 257.517 259.082 260.295 261.508 262.72 263.933 265.281 266.628 267.976 269.324 270.547 271.771 272.994 274.218 274.605 274.993 275.381 275.769 277.237 278.704 280.172 281.639 282.896 284.153 285.41 286.668 286.595 286.522 286.449 286.376 287.617 288.858 290.099 291.339 293.6 295.86 298.121 300.382 301.344 302.307 303.27 304.233 305.499 306.765 308.031 309.297 310.384 311.472 312.559 313.646 315.073 316.5 317.927 319.354 320.468 321.583 322.697 323.812 325.23 326.649 328.067 329.486 330.713 331.941 333.168 334.396 335.965 337.534 339.103 340.672 340.291 339.909 339.528 339.146 339.964 340.781 341.598 342.415 342.977 343.538 344.099 344.66 344.279 343.897 343.515 343.134 344.109 345.083 346.058 347.033 347.823 348.612 349.402 350.192 351.644 353.096 354.548 356
102.722 104.37 106.337 107.971 109.529 111.602 113.001 114.765 115.802 116.657 117.45 118.623 119.777 120.985 122.087 123.866 124.683 124.904 126.23 126.886 128.004 128.943 129.763 130.499 132.31 134.048 135.792 137.868 138.53 139.458 139.85 139.902 142.006 143.054 144.697 146.439 147.416 148.638 150.632 151.503 153.028 154.481 156.065 157.036 157.318 158.012 158.939 159.643 160.333 160.646 161.258 161.179 161.749 162.692 163.514 164.385 166.191 167.807 169.28 170.671 171.738 172.372 173.259 174.063 174.761 175.639 175.884 177.025 177.92 178.287 179.592 180.302 181.497 183.227 184.265 185.235 185.826 186.334 186.448 186.984 188.143 188.425 189.009 190.466 190.72 189.968 190.011 190.331 191.054 191.45 192.359 193.063 193.948 194.123 194.158 194.239 193.933 194.039 194.56 195.213 195.107 195.385 196.109 196.404 196.955 197.68 198.259 198.893 199.136 199.59 200.679 201.48 202.328 202.913 204.402 205.669 207.541 209.342 210.172 211.398 211.146 211.039 210.374 209.57 209.999 209.445 209.367 209.567 211.093 212.494 214.911 216.098 218.073 220.513 222.088 224.568 224.863 225.266 226.396 227.774 229.166 230.77 232.492 233.252 235.292 237.085 239.875 241.882 243.773 245.687 247.498 249.114 250.517 252.261 252.914 253.667 254.337 255.627 257.486 259.455 259.963 261.77 263.113 264.672 265.711 267.167 268.764 270.294 271.192 272.356 273.486 274.594 274.492 274.998 275.987 276.387 277.788 279.932 281.232 282.532 283.769 284.824 286.198 288.047 288.089 288.462 287.832 288.015 289.247 289.994 290.972 291.923 293.985 295.799 297.861 300.561 302.033 303.304 304.35 305.306 306.447 307.02 308.339 310.089 311.051 311.653 312.799 314.337 316.487 317.633 318.764 319.792 321.121 322.099 322.961 324.309 325.702 327.291 328.391 329.844 330.914 332.196 333.228 334.804 336.5 337.983 338.639 340.098 339.957 339.391 339.823 339.54 340.161 340.806 341.555 342.769 342.953 343.892 344.842 345.23 345.308 345.216 344.699 344.077 344.687 345.042 346.324 346.994 347.858 349.102 350.101 351.003 352.2 354.194 355.278 357
103.706 105.412 107.348 109.285 111.31 113.336 114.894 116.452 117.407 118.362 119.39 120.418 121.381 122.345 123.826 125.307 125.522 125.737 126.897 128.056 129.093 130.13 130.666 131.201 132.662 134.123 135.856 137.588 138.868 140.148 140.283 140.418 141.942 143.466 145.222 146.977 148.038 149.1 150.827 152.554 154.008 155.461 156.491 157.521 157.948 158.375 159.456 160.538 161.122 161.706 161.82 161.934 162.471 163.008 163.725 164.443 166.191 167.94 169.131 170.322 171.314 172.306 173.288 174.271 175.157 176.042 176.737 177.431 177.897 178.363 179.582 180.801 182.408 184.015 184.704 185.394 186.236 187.079 187.471 187.864 188.248 188.632 189.616 190.6 190.25 189.901 190.412 190.924 191.273 191.623 192.466 193.309 194.118 194.926 194.792 194.657 194.194 193.73 194.64 195.549 195.385 195.22 195.903 196.586 197.287 197.988 198.626 199.264 199.354 199.444 200.726 202.008 202.622 203.236 205.174 207.111 209.452 211.792 212.517 213.241 213.286 213.33 212.265 211.199 210.87 210.54 210.457 210.374 211.799 213.223 215.326 217.428 219.694 221.96 223.867 225.773 225.656 225.539 227.232 228.924 230.348 231.772 232.681 233.59 235.279 236.967 239.62 242.272 244.398 246.524 248.273 250.022 252.015 254.008 254.261 254.513 254.908 255.303 257.566 259.828 260.93 262.033 263.722 265.411 266.559 267.706 269.485 271.264 272.102 272.94 273.955 274.97 274.986 275.002 276.004 277.005 279.083 281.161 282.293 283.426 284.46 285.495 287.46 289.426 289.914 290.403 290.028 289.653 290.392 291.131 291.819 292.507 294.122 295.737 298.238 300.74 302.52 304.3 305.339 306.378 306.826 307.274 309.078 310.882 311.358 311.834 313.431 315.028 316.897 318.767 319.498 320.23 321.422 322.615 323.711 324.807 326.37 327.933 329.067 330.201 331.326 332.452 333.832 335.213 336.823 338.433 338.979 339.524 339.198 338.872 339.403 339.934 340.383 340.832 341.978 343.123 343.685 344.246 345.023 345.8 346.168 346.535 345.778 345.021 345.011 345 345.977 346.955 348.273 349.592 350.703 351.815 353.554 355.292 356.646 358
104.586 106.684 108.879 110.599 113.046 114.602 116.653 118.139 118.707 120.139 121.127 122.213 123.349 124.222 125.767 126.748 126.869 127.515 128.503 129.227 130.156 130.816 131.207 131.903 132.929 134.47 136.518 137.308 139.131 139.694 140.186 140.934 142.596 144.109 146.273 147.516 148.571 150.228 151.706 153.606 155.162 156.018 156.912 158.007 158.709 159.392 160.405 161.432 161.853 162.295 162.351 162.688 162.962 163.504 163.809 164.5 165.57 167.515 168.626 169.972 171.277 172.23 173.42 174.479 175.681 176.254 176.867 177.838 178.538 179.193 180.476 181.301 182.575 183.886 184.913 185.553 186.261 187.373 187.572 188.743 189.04 189.438 189.837 190.733 190.896 190.694 190.402 191.517 192.05 192.289 193.261 193.555 193.704 194.787 194.878 195.076 194.771 194.794 194.688 195.886 196.088 195.903 196.347 196.768 197.319 198.233 199.138 199.636 199.761 200.49 201.539 202.537 204.294 204.883 206.71 208.554 210.611 212.627 213.996 215.084 214.944 214.512 213.491 212.829 212.322 211.882 211.413 211.182 213.128 214.631 216.614 218.757 220.99 223.047 224.526 226.978 227.372 227.621 228.79 230.075 230.904 232.259 233.667 233.929 235.743 237.813 240.122 242.663 244.484 246.985 249.07 250.93 252.456 254.015 254.633 255.36 256.027 256.847 258.495 260.201 261.391 262.882 264.654 266.15 267.299 268.876 270.62 272.234 273.322 273.702 274.476 275.346 275.573 275.992 276.578 277.623 279.572 281.444 282.857 284.319 285.679 287.097 289.125 290.805 291.428 291.48 291.451 291.291 291.639 292.216 292.3 293.091 295.028 296.562 298.921 300.919 302.122 304.555 305.699 307.451 308.01 308.884 310.169 311.674 312.307 313.136 314.371 315.719 317.229 318.762 319.796 320.668 321.577 323.034 323.931 325.304 326.775 328.146 329.505 330.559 331.914 332.963 334.214 335.622 336.456 337.818 338.813 338.95 338.974 339.211 339.792 340.328 341.038 341.554 342.344 343.477 343.836 344.816 345.856 346.37 346.832 346.73 345.977 345.965 346.504 345.946 346.456 346.915 348.589 349.874 351.394 352.626 354.545 356.006 358.188 359
105.978 107.956 109.935 111.913 113.891 115.869 117.847 119.825 120.871 121.916 122.962 124.008 125.053 126.099 127.144 128.19 128.742 129.294 129.845 130.397 130.949 131.501 132.053 132.605 133.711 134.817 135.922 137.028 138.134 139.239 140.345 141.451 143.102 144.752 146.403 148.054 149.705 151.356 153.007 154.657 155.616 156.575 157.533 158.492 159.451 160.409 161.368 162.326 162.605 162.884 163.163 163.442 163.721 164 164.279 164.558 165.824 167.091 168.357 169.623 170.889 172.155 173.421 174.688 175.577 176.466 177.355 178.244 179.133 180.022 180.912 181.801 182.779 183.756 184.734 185.712 186.69 187.668 188.645 189.623 189.934 190.245 190.555 190.866 191.177 191.488 191.799 192.109 192.532 192.955 193.379 193.802 194.225 194.648 195.071 195.494 195.676 195.858 196.04 196.222 196.404 196.586 196.768 196.95 197.714 198.479 199.243 200.008 200.772 201.536 202.301 203.065 204.798 206.531 208.263 209.996 211.729 213.462 215.195 216.927 216.31 215.693 215.076 214.458 213.841 213.224 212.607 211.989 214.014 216.038 218.062 220.086 222.11 224.134 226.159 228.183 228.943 229.704 230.465 231.225 231.986 232.746 233.507 234.268 236.464 238.66 240.856 243.053 245.249 247.445 249.641 251.838 252.93 254.022 255.114 256.206 257.298 258.39 259.482 260.575 262.153 263.732 265.311 266.889 268.468 270.047 271.625 273.204 273.834 274.463 275.093 275.723 276.352 276.982 277.612 278.241 279.984 281.727 283.47 285.213 286.956 288.699 290.442 292.184 292.371 292.557 292.743 292.93 293.116 293.302 293.488 293.675 295.531 297.387 299.243 301.099 302.955 304.811 306.667 308.523 309.509 310.495 311.481 312.466 313.452 314.438 315.424 316.41 317.584 318.758 319.932 321.106 322.28 323.454 324.628 325.802 327.08 328.359 329.638 330.916 332.195 333.474 334.752 336.031 336.617 337.204 337.79 338.377 338.963 339.549 340.136 340.722 341.499 342.277 343.054 343.831 344.608 345.386 346.163 346.94 346.932 346.924 346.916 346.908 346.9 346.892 346.884 346.876 348.517 350.157 351.798 353.438 355.079 356.719 358.359 360
107.268 108.722 110.387 112.632 114.873 116.453 118.395 120.58 121.833 122.387 123.495 124.506 125.726 126.867 128.476 129.631 129.58 130.678 131.346 131.943 132.701 133.276 133.36 133.861 134.895 135.663 136.111 137.133 138.755 139.134 141.169 141.967 143.929 145.124 147.127 148.644 150.6 151.695 153.315 155.017 156.041 156.816 157.804 159.099 159.198 160.551 161.358 163.221 163.449 163.656 163.766 163.781 164.395 164.997 165.608 165.603 167.206 168.845 169.465 170.593 171.244 172.225 173.711 174.896 176.217 176.964 178.238 179.284 179.774 180.456 181.64 182.389 184.064 184.837 185.95 186.811 187.558 188.654 189.458 190.503 190.382 190.704 190.577 190.828 191.306 191.572 191.937 192.814 193.029 193.798 194.21 194.369 194.271 194.945 195.316 195.912 196.736 196.599 196.682 196.379 196.901 197.082 196.893 197.714 198.913 199.08 200.252 200.628 201.721 202.526 203.261 203.593 205.105 206.819 208.612 210.325 212 213.728 215.101 216.42 215.764 215.395 215.618 215.124 214.545 214.057 213.827 212.797 214.188 216.02 218.012 220.273 221.908 223.81 225.801 228.124 228.389 229.037 230.194 231.448 232.549 233.582 234.209 234.606 236.075 238.414 240.71 242.939 245.294 247.595 249.885 251.641 252.626 252.738 254.557 256.213 257.483 258.648 259.795 260.948 262.824 264.498 265.705 267.31 268.837 270.027 271.529 273.225 274.37 274.838 275.764 276.794 277.326 277.949 278.368 278.859 281.004 282.604 284.459 285.403 286.732 288.189 290.358 292.007 292.131 292.085 292.352 292.823 292.931 293.195 293.456 294.258 296.813 298.796 300.698 302.107 303.473 304.922 306.824 308.725 309.765 310.317 311.391 313.165 313.905 315.046 316.663 317.101 318.414 320.147 320.781 321.774 322.78 323.865 324.991 326.404 327.553 329.101 329.729 331.087 332.481 333.063 334.989 336.44 337.266 337.559 338.399 338.587 339.209 339.893 340.641 341.307 342.163 342.642 343.65 344.478 345.451 346.216 346.732 347.51 347.502 347.888 348.327 348.225 348.116 348.205 348.544 348.485 350.674 352.523 353.821 355.409 356.688 357.844 359.41 361
107.744 109.488 111.42 113.352 115.195 117.038 119.186 121.334 122.096 122.858 123.931 125.004 126.32 127.635 129.354 131.072 131.568 132.063 132.776 133.489 134.269 135.05 135.083 135.117 135.813 136.509 136.873 137.237 138.133 139.029 140.756 142.483 143.989 145.495 147.365 149.234 150.635 152.035 153.706 155.376 156.216 157.057 158.381 159.706 160.199 160.692 162.404 164.115 164.272 164.428 164.274 164.12 165.057 165.995 166.321 166.648 168.624 170.599 171.081 171.563 171.929 172.294 173.699 175.104 176.283 177.463 178.893 180.323 180.606 180.89 181.934 182.977 184.448 185.919 186.915 187.911 188.775 189.64 190.511 191.383 191.273 191.163 190.976 190.789 191.222 191.656 192.588 193.52 194.08 194.641 194.789 194.937 195.09 195.243 195.786 196.33 196.835 197.34 196.939 196.537 197.057 197.578 198.028 198.479 199.08 199.681 200.464 201.248 202.381 203.515 203.818 204.122 205.615 207.108 208.882 210.655 212.325 213.995 214.954 215.913 215.505 215.097 215.444 215.79 215.34 214.891 214.248 213.605 214.804 216.003 218.232 220.46 221.973 223.485 225.775 228.065 228.217 228.369 230.02 231.671 233.045 234.418 234.681 234.945 236.556 238.167 240.497 242.826 245.285 247.744 249.595 251.445 251.449 251.453 253.837 256.22 257.563 258.906 260.113 261.321 263.292 265.263 266.497 267.731 268.869 270.007 271.627 273.246 274.229 275.212 276.539 277.866 278.391 278.917 279.197 279.477 281.479 283.481 284.537 285.594 286.637 287.68 289.755 291.83 291.722 291.614 292.165 292.717 292.903 293.089 293.965 294.842 297.524 300.206 301.66 303.115 304.074 305.033 306.98 308.927 309.533 310.139 312.001 313.863 314.759 315.654 316.723 317.792 319.664 321.536 321.989 322.442 323.359 324.277 325.641 327.006 328.425 329.843 330.55 331.258 331.955 332.653 334.751 336.849 337.382 337.915 338.356 338.797 339.517 340.236 341.064 341.892 342.449 343.006 344.066 345.125 346.086 347.046 347.563 348.08 348.466 348.852 349.197 349.541 349.53 349.519 349.807 350.095 352.492 354.889 356.134 357.379 358.175 358.97 360.485 362
108.691 110.442 112.321 114.072 116.179 117.927 119.896 122.088 122.732 123.64 124.546 125.503 127.107 128.807 130.684 132.513 133.139 133.665 134.335 135.034 135.427 136.077 136.309 136.372 136.798 137.023 136.7 137.342 137.665 139.755 141.577 143 144.334 146.23 148.121 149.824 151.077 152.645 154.14 155.735 156.342 157.782 159.366 160.313 161.679 162.052 163.702 165.01 165.258 164.889 164.732 164.459 165.218 166.381 166.88 167.693 168.992 170.86 171.426 172.533 172.826 173.403 174.235 175.312 176.682 178.212 179.965 181.362 182.019 182.084 182.896 183.566 185.038 186.525 187.795 189.01 189.739 190.633 191.573 192.262 192.282 191.545 190.685 190.751 191.547 192.238 193.511 194.225 194.384 195.071 195.434 195.505 195.922 195.931 196.213 196.748 196.836 197.175 196.97 196.695 197.151 198.004 198.303 199.243 199.881 200.464 201.432 201.868 203.097 203.674 204.498 204.65 206.371 207.677 209.093 210.984 211.942 213.55 214.492 215.406 215.245 215.554 215.882 216.456 216.167 215.531 214.881 214.412 215.878 217.015 218.549 220.647 222.153 223.938 225.893 228.007 228.972 229.201 230.521 231.894 232.936 234.144 234.517 235.283 236.682 238.639 240.989 242.713 245.274 247.285 249.631 251.249 251.382 252.548 254.558 256.227 257.946 259.028 260.909 261.694 263.432 265.292 266.843 268.153 269.026 270.469 271.831 273.267 274.405 275.93 277.085 278.938 279.1 279.639 279.469 280.096 282.131 283.413 284.786 285.784 286.613 288.202 289.827 291.652 291.803 291.802 292.324 292.611 293.389 293.673 294.015 295.426 297.98 300.388 302.104 304.123 305.305 306.132 307.856 309.13 310.376 311.218 312.98 314.562 315.423 316.435 317.635 318.483 319.911 321.506 322.282 323.111 324.124 325.136 326.296 327.608 328.943 329.874 330.337 331.428 332.577 333.643 335.362 337.257 337.957 338.179 338.422 339.008 339.88 340.688 341.666 342.477 343.18 343.873 344.518 345.773 346.287 347.433 348.573 348.65 348.659 349.775 350.647 350.857 350.713 351.131 351.736 351.704 353.626 356.103 357.702 359.35 360.356 360.815 362.315 363
109.698 111.396 113.093 114.791 116.804 118.817 120.83 122.843 123.632 124.422 125.212 126.001 127.99 129.978 131.966 133.955 134.611 135.267 135.924 136.58 136.842 137.104 137.366 137.628 137.582 137.537 137.492 137.446 138.964 140.481 141.999 143.516 145.24 146.965 148.689 150.414 151.834 153.254 154.674 156.095 157.301 158.507 159.714 160.92 162.166 163.412 164.658 165.904 165.628 165.351 165.074 164.797 165.783 166.768 167.753 168.738 169.929 171.12 172.312 173.503 174.007 174.512 175.016 175.521 177.241 178.961 180.681 182.402 182.84 183.278 183.716 184.154 185.643 187.132 188.62 190.109 190.867 191.626 192.384 193.142 192.535 191.927 191.32 190.712 191.766 192.821 193.875 194.93 195.215 195.501 195.787 196.072 196.346 196.619 196.893 197.166 197.088 197.009 196.931 196.852 197.641 198.43 199.219 200.008 200.628 201.248 201.868 202.488 203.16 203.833 204.506 205.178 206.712 208.246 209.779 211.313 212.21 213.106 214.003 214.899 215.455 216.01 216.566 217.122 216.646 216.171 215.695 215.22 216.623 218.027 219.43 220.834 222.612 224.391 226.169 227.948 228.99 230.033 231.075 232.117 232.993 233.869 234.746 235.622 237.366 239.111 240.855 242.6 244.713 246.826 248.939 251.053 252.348 253.644 254.939 256.235 257.693 259.151 260.609 262.067 263.694 265.32 266.947 268.574 269.752 270.931 272.11 273.288 274.968 276.649 278.329 280.009 280.185 280.361 280.537 280.714 282.029 283.344 284.659 285.974 287.349 288.725 290.1 291.475 291.732 291.99 292.247 292.505 293.381 294.257 295.134 296.01 298.29 300.57 302.851 305.131 306.181 307.231 308.282 309.332 310.814 312.296 313.778 315.26 316.239 317.217 318.195 319.174 320.325 321.476 322.628 323.779 324.887 325.995 327.103 328.211 329.058 329.905 330.752 331.599 333.116 334.633 336.149 337.666 338.054 338.442 338.83 339.218 340.179 341.14 342.101 343.062 343.901 344.741 345.58 346.42 347.12 347.82 348.52 349.22 349.959 350.697 351.435 352.174 352.459 352.743 353.028 353.313 355.315 357.317 359.319 361.321 361.991 362.66 363.33 364
110.762 112.359 114.368 115.826 117.747 119.641 121.86 123.597 125.101 125.615 126.856 127.698 129.805 131.859 133.639 135.396 135.957 136.608 137.072 137.731 137.905 138.192 138.52 138.883 138.457 139.066 139.263 139.114 140.908 141.876 142.457 144.032 146.052 147.328 149.211 150.7 151.686 153.247 154.666 156.454 157.577 158.987 160.397 161.567 162.413 163.154 165 166.799 167.14 166.753 166.486 166.398 167.644 167.954 168.854 169.783 170.887 171.566 172.917 173.786 174.214 174.37 174.68 175.729 178.278 179.433 181.398 182.159 183.119 183.564 184.594 184.742 185.792 187.328 188.481 190.478 191.039 191.82 193.315 194.022 193.281 193.013 192.901 192.335 193.305 193.914 194.862 195.635 196.357 196.417 196.141 196.628 196.718 197.198 197.198 197.584 197.48 197.011 197.809 197.877 198.834 199.102 199.865 200.772 201.241 201.708 202.976 203.16 204.144 204.599 205.353 205.707 206.802 207.889 209.195 211.005 212.027 212.777 214.017 214.392 215.041 214.927 215.608 216.756 216.542 216.851 216.56 216.027 217.24 218.593 219.854 221.396 222.842 224.656 226.229 227.889 228.981 230.35 231.104 232.174 233.435 234.46 234.819 235.96 237.769 239.806 241.01 242.855 244.08 246.158 248.446 250.856 252.336 253.828 255.694 256.404 257.548 259.177 260.148 262.44 263.858 265.586 267.187 268.547 269.998 270.976 272.399 273.309 275.289 277.049 277.939 279.577 279.885 280.053 280.496 281.332 282.886 283.953 285.097 286.225 287.163 288.495 290.087 291.298 291.503 291.864 292.705 293.017 293.782 294.514 295.824 296.594 299.081 300.889 302.779 304.909 305.953 307.321 308.254 309.534 311.186 312.508 314.211 315.455 316.749 317.921 318.571 319.864 321.028 321.96 323.245 324.404 325.498 326.438 327.319 328.813 329.344 330.601 331.342 332.439 333.914 335.552 336.617 338.075 338.684 339.557 339.959 340.001 341.012 342.141 343.015 343.646 344.982 345.624 346.449 346.927 347.46 348.192 348.984 349.79 350.981 352.247 352.812 353.037 354.047 354.348 354.784 354.922 356.531 358.434 360.676 361.959 362.499 363.443 364.267 365
111.661 113.322 115.091 116.86 118.663 120.465 122.408 124.351 125.579 126.807 128.101 129.395 131.568 133.741 135.289 136.837 137.392 137.948 138.415 138.883 139.082 139.281 139.71 140.139 140.367 140.596 140.688 140.781 142.026 143.271 143.91 144.549 146.119 147.69 149.338 150.985 152.112 153.239 155.026 156.813 158.14 159.467 160.84 162.213 162.555 162.896 165.295 167.693 167.925 168.156 168.077 167.999 168.57 169.141 169.985 170.828 171.419 172.011 173.04 174.069 174.148 174.228 175.082 175.937 177.921 179.906 180.911 181.916 182.883 183.85 184.59 185.331 186.428 187.525 189.186 190.847 191.431 192.015 193.458 194.902 194.5 194.099 194.029 193.959 194.483 195.007 195.673 196.34 196.837 197.334 197.259 197.183 197.48 197.777 197.89 198.002 197.507 197.013 197.957 198.902 199.338 199.775 200.655 201.536 201.852 202.168 203 203.833 204.599 205.365 205.8 206.235 206.884 207.533 209.115 210.697 211.572 212.447 213.166 213.885 213.864 213.844 215.117 216.391 216.961 217.532 217.183 216.835 217.997 219.16 220.559 221.958 223.44 224.922 226.376 227.83 229.249 230.668 231.449 232.231 233.64 235.05 235.674 236.299 238.4 240.502 241.806 243.111 244.301 245.49 248.075 250.66 252.336 254.013 255.293 256.574 257.889 259.204 261.009 262.813 264.332 265.852 267.186 268.52 269.771 271.022 272.176 273.33 275.39 277.449 278.297 279.144 279.445 279.745 280.847 281.95 283.256 284.561 285.518 286.475 287.37 288.266 289.693 291.12 291.429 291.738 292.634 293.53 294.15 294.77 295.974 297.177 299.192 301.207 302.947 304.687 306.048 307.41 308.573 309.737 311.228 312.719 314.184 315.65 317.138 318.626 319.591 320.555 321.5 322.444 323.736 325.029 325.955 326.882 328.148 329.415 330.356 331.297 332.288 333.28 334.875 336.471 337.477 338.484 339.578 340.672 340.728 340.785 341.964 343.143 343.687 344.231 345.369 346.507 346.971 347.435 347.999 348.563 349.462 350.36 352.078 353.797 353.848 353.9 354.926 355.952 356.242 356.532 358.042 359.551 361.075 362.598 363.411 364.225 365.112 366
112.505 114.394 116.413 117.895 119.57 121.43 122.893 125.105 126.464 128.066 129.457 131.092 133.036 134.998 136.588 138.278 138.804 139.2 139.446 140.034 140.638 140.599 141.105 141.395 141.54 141.99 142.468 142.449 143.199 144.06 144.513 145.065 146.592 148.13 149.649 151.271 152.686 153.892 155.671 157.173 158.645 159.993 161.393 162.86 163.774 164.696 167.141 168.588 168.588 169.248 169.524 169.599 170.297 170.6 171.387 171.873 172.392 172.894 173.554 174.352 174.733 174.861 175.152 176.145 177.63 179.399 180.772 181.673 183.062 183.91 185.323 185.919 187.176 188.286 189.8 191.216 192.367 193.069 194.097 195.781 195.376 195.516 195.615 195.582 196.386 196.242 196.815 197.045 197.651 197.678 197.846 197.739 198.293 198.172 198.796 198.421 198.32 198.454 199.03 199.927 200.262 200.892 201.305 202.301 203.003 203.145 203.942 204.506 205.155 205.8 206.174 206.763 207.209 208.11 208.935 210.389 211.155 211.962 212.177 213.378 213.983 214.055 215.009 216.026 216.845 217.293 217.433 217.643 218.73 219.963 221.776 222.52 223.804 225.16 226.514 227.772 229.21 230.348 231.16 232.288 233.532 234.855 235.545 236.637 238.545 240.4 241.949 243.366 244.691 246.218 248.392 250.464 251.942 253.802 255.032 256.744 258.446 259.72 261.288 263.186 264.54 265.932 267.067 268.493 269.465 270.97 272.16 273.351 275.132 276.637 277.468 278.712 279.454 280.239 281.341 282.568 283.797 284.821 285.887 286.725 287.875 288.568 289.922 290.943 291.502 292.199 293.299 294.043 294.957 295.61 296.34 297.761 299.427 301.251 303.021 304.465 305.938 307.301 308.876 309.939 311.084 312.905 314.411 315.844 317.48 318.807 320.363 321.246 322.339 323.276 324.468 325.654 326.886 327.665 328.969 330.017 330.761 332.043 332.648 334.12 335.771 336.801 338.248 338.893 340.364 340.749 341.275 341.568 342.508 343.509 343.817 344.816 346.008 346.717 347.319 347.943 348.747 349.269 349.555 350.93 352.415 353.68 354.501 354.762 355.637 356.82 357.541 358.141 359.812 360.682 362.192 363.237 364.918 365.081 366.218 367
113.732 115.465 117.197 118.93 120.662 122.395 124.127 125.86 127.592 129.325 131.057 132.79 134.522 136.254 137.987 139.719 140.086 140.452 140.819 141.185 141.551 141.918 142.284 142.65 143.017 143.383 143.75 144.116 144.482 144.849 145.215 145.581 147.075 148.569 150.063 151.557 153.05 154.544 156.038 157.532 159.026 160.519 162.013 163.507 165.001 166.495 167.988 169.482 169.912 170.341 170.771 171.2 171.63 172.059 172.488 172.918 173.347 173.777 174.206 174.636 175.065 175.495 175.924 176.354 177.623 178.892 180.161 181.431 182.7 183.969 185.238 186.507 187.777 189.046 190.315 191.584 192.854 194.123 195.392 196.661 196.797 196.933 197.07 197.206 197.342 197.478 197.614 197.75 197.886 198.022 198.158 198.294 198.43 198.567 198.703 198.839 199.367 199.895 200.424 200.952 201.48 202.008 202.537 203.065 203.593 204.122 204.65 205.178 205.707 206.235 206.763 207.291 207.989 208.686 209.384 210.081 210.779 211.476 212.173 212.871 213.568 214.266 214.963 215.66 216.358 217.055 217.753 218.45 219.608 220.766 221.924 223.082 224.239 225.397 226.555 227.713 228.871 230.029 231.187 232.344 233.502 234.66 235.818 236.976 238.637 240.299 241.96 243.622 245.283 246.945 248.606 250.268 251.929 253.591 255.252 256.913 258.575 260.236 261.898 263.559 264.786 266.013 267.239 268.466 269.693 270.919 272.146 273.372 274.599 275.826 277.052 278.279 279.506 280.732 281.959 283.186 284.133 285.081 286.028 286.976 287.923 288.87 289.818 290.765 291.713 292.66 293.608 294.555 295.503 296.45 297.398 298.345 299.82 301.294 302.769 304.243 305.718 307.192 308.667 310.141 311.616 313.09 314.565 316.039 317.514 318.988 320.463 321.937 323.023 324.108 325.193 326.278 327.364 328.449 329.534 330.619 331.705 332.79 333.875 334.961 336.046 337.131 338.216 339.302 340.064 340.826 341.589 342.351 343.114 343.876 344.639 345.401 346.163 346.926 347.688 348.451 349.213 349.976 350.738 351.5 352.532 353.563 354.594 355.625 356.657 357.688 358.719 359.75 360.781 361.813 362.844 363.875 364.906 365.938 366.969 368
114.589 116.928 118.425 120.904 122.547 123.653 124.842 126.881 128.489 129.596 131.159 133.055 134.777 136.591 138.46 139.795 140.573 140.871 140.985 141.735 142.676 143.04 143.835 143.395 144.021 144.724 144.536 144.34 144.406 144.808 145.625 146.098 147.584 148.317 150.252 152.031 153.389 154.618 155.836 157.461 159.047 160.737 162.379 163.266 164.665 166.634 168.087 169.312 169.794 170.015 170.238 170.311 170.919 171.819 172.589 173.113 173.223 173.396 173.333 174.089 175.016 175.466 175.632 176.562 178.033 178.738 180.201 181.303 182.893 183.852 185.457 186.386 187.21 188.218 189.508 190.841 192.715 194.137 195.409 196.408 196.237 195.903 196.107 196.219 195.697 196.091 196.815 197.374 197.871 198.445 198.441 199.085 199.683 199.318 199.006 199.257 199.464 199.628 200.032 200.753 202.346 203.164 203.708 204.073 205.189 206.285 206.502 206.845 206.837 207.294 207.467 207.989 208.452 208.938 210.304 210.888 211.827 211.882 212.253 213.259 213.731 214.508 215.351 216.168 216.36 217.348 218.404 219.258 219.861 220.704 221.895 223.32 224.642 225.35 227.144 227.935 228.696 230.445 231.676 233.271 235.23 235.985 237.368 237.818 239.343 240.936 242.623 244.328 246.226 247.373 249.144 250.291 251.473 253.108 254.714 256.916 258.093 259.68 261.649 263.932 265.099 266.583 267.881 268.844 269.51 270.165 271.728 273.21 275.041 276.113 277.103 278.366 279.244 280.554 281.727 283.525 284.694 285.392 286.633 288.085 289.228 289.882 291.095 291.431 292.408 293.409 294.599 295.712 296.755 297.828 298.303 298.929 300.777 301.339 302.857 304.141 306.113 307.608 309.031 309.949 311.199 313.107 314.493 315.734 317.587 319.675 320.685 322.239 323.521 324.43 325.85 326.384 327.285 328.329 329.385 330.794 332.301 332.876 333.917 335.415 336.694 338.025 338.929 339.71 339.925 341.266 341.661 342.143 342.802 344.209 344.68 345.842 346.445 347.583 348.594 348.942 349.483 350.154 351.188 352.339 353.353 355.084 355.947 357.164 358.153 359.847 359.941 360.568 361.63 362.679 363.429 364.17 364.995 366.4 368.125 369
116.196 118.392 120.635 122.878 123.895 124.911 126.407 127.902 128.885 129.867 131.594 133.321 135.125 136.928 138.399 139.87 140.58 141.291 141.788 142.284 143.223 144.161 144.15 144.139 145.102 146.065 145.315 144.564 144.666 144.767 145.691 146.614 147.339 148.064 150.285 152.506 153.599 154.691 156.04 157.389 159.172 160.955 161.99 163.024 164.899 166.773 167.958 169.143 169.415 169.688 169.555 169.422 170.501 171.58 172.444 173.308 173.162 173.016 173.279 173.541 174.489 175.437 176.103 176.77 177.677 178.584 179.88 181.176 182.455 183.734 184.999 186.265 186.828 187.391 188.744 190.097 192.124 194.151 195.153 196.155 195.513 194.872 195.052 195.232 194.968 194.705 195.851 196.998 197.933 198.868 199.372 199.876 199.973 200.07 199.873 199.675 199.518 199.361 199.957 200.554 202.437 204.32 204.7 205.081 206.764 208.447 208.479 208.511 208.433 208.354 208.52 208.686 208.938 209.189 210.442 211.695 211.992 212.289 212.967 213.646 214.198 214.75 215.713 216.676 217.158 217.64 218.853 220.065 220.353 220.641 222.1 223.558 224.43 225.302 226.73 228.158 229.51 230.862 232.529 234.197 235.753 237.31 237.985 238.66 240.117 241.573 243.304 245.035 246.418 247.802 249.058 250.315 251.47 252.625 254.772 256.919 258.021 259.124 261.715 264.305 265.729 267.154 268.188 269.223 269.317 269.411 271.23 273.048 274.724 276.4 277.426 278.453 279.414 280.376 282.119 283.863 284.784 285.704 287.449 289.194 290.043 290.893 291.494 292.096 293.127 294.158 295.514 296.869 298.038 299.207 299.36 299.513 300.448 301.384 302.711 304.039 306.031 308.024 308.89 309.757 311.441 313.125 314.277 315.429 317.895 320.362 321.451 322.541 323.647 324.753 325.621 326.489 327.348 328.208 329.589 330.969 331.965 332.961 334.415 335.869 337.395 338.92 339.52 340.119 340.913 341.706 341.821 341.935 343.239 344.542 345.413 346.283 347.261 348.24 348.837 349.433 349.883 350.333 351.756 353.178 354.892 356.606 357.654 358.702 360.354 362.006 361.696 361.386 362.466 363.546 364.006 364.466 365.664 366.863 368.431 370
