ncols 129
nrows 89
xllcorner 0
yllcorner 30
cellsize 2
0 3.67486 6.40646 7.23253 9.55834 11.9242 13.5018 14.2984 13.2757 10.1638 8.24288 6.46735 2.66606 -1.23113 -4.45923 -6.45174 -10.0168 -8.38154 -8.12036 -7.01505 -8.26813 -5.14961 -6.73915 -4.26987 -5.86418 -6.42419 -7.39311 -8.09996 -4.85431 -3.26887 -2.98154 -0.316946 -0.952548 -0.518593 2.24151 2.52308 3.68437 1.78196 4.95046 4.49459 5.85652 7.53192 9.02562 10.7837 14.1492 16.7274 18.8967 21.5637 26.7338 22.2657 23.2156 21.438 21.7008 21.5426 18.9868 17.3342 11.2611 9.11131 9.35547 8.88799 9.91664 9.64669 10.6949 10.4859 10.9223 5.7802 1.51709 -1.82754 -2.53586 -3.35578 -9.32592 -12.3707 -16.2708 -15.4974 -17.9057 -14.5018 -14.6768 -16.9569 -22.7496 -21.4467 -21.4446 -20.1403 -21.1048 -23.1601 -25.3083 -27.4719 -30.9086 -31.6876 -33.0007 -34.6789 -39.6901 -41.3228 -46.5491 -51.0016 -53.3485 -54.0776 -55.0686 -58.3331 -56.567 -52.052 -52.1668 -52.1395 -49.0154 -46.744 -43.3849 -40.8552 -37.7833 -34.3952 -28.5549 -26.0392 -21.5117 -17.4654 -10.2105 -9.42797 -11.1639 -9.40029 -8.61199 -6.28176 -4.46614 -6.21056 -4.8742 -4.58216 -1.06834 -1.41619 -2.97325 0.00520515 0.774067 0.641306 0
0 4.5045 9.009 10.2589 11.5088 13.5503 15.5917 13.4637 11.3356 9.62486 7.91414 5.65936 3.40458 -0.39866 -4.2019 -6.4374 -8.6729 -7.37516 -6.07741 -6.82385 -7.57028 -6.63997 -5.70967 -5.43337 -5.15708 -7.39311 -9.62914 -7.79745 -5.96575 -4.80008 -3.63442 -2.31253 -0.99065 1.29855 3.58774 4.12573 4.66372 5.02494 5.38617 5.38736 5.38855 5.64304 5.89752 8.1065 10.3155 12.1483 13.9812 18.9037 23.8262 22.5863 21.3464 22.1098 22.8731 22.4373 22.0016 16.5542 11.1067 9.31737 7.52799 8.20541 8.88283 9.77732 10.6718 11.0155 11.3592 5.46162 -0.435984 -0.981299 -1.52661 -4.80903 -8.09145 -11.5287 -14.9659 -16.2388 -17.5117 -13.9208 -10.3299 -18.0407 -25.7514 -24.0844 -22.4173 -20.8037 -19.1901 -22.1199 -25.0496 -29.3762 -33.7027 -34.521 -35.3392 -39.2532 -43.1672 -47.2507 -51.3342 -55.3581 -59.3821 -58.3267 -57.2713 -60.1241 -62.977 -59.9312 -56.8854 -55.0884 -53.2914 -49.0154 -44.7393 -43.5622 -42.3851 -37.5812 -32.7773 -30.1587 -27.5401 -20.6634 -13.7867 -15.1877 -16.5887 -14.4845 -12.3803 -8.6821 -4.98389 -5.8396 -6.69531 -3.27109 0.153134 -2.13341 -4.41995 -1.05427 2.31141 1.1557 0
0 5.1106 8.35694 9.81656 13.4593 14.9714 13.5122 11.5667 9.39552 7.4422 7.04134 6.99212 4.14311 1.53928 -2.37683 -6.42151 -7.32902 -6.4013 -6.07864 -6.69619 -6.87244 -7.41801 -5.3342 -4.03577 -4.44997 -5.76604 -7.79745 -9.77155 -7.07719 -6.29996 -4.13108 -0.796825 -1.02875 0.101417 3.18276 5.0547 5.64307 4.19297 5.46184 5.93663 4.92057 4.26815 4.72392 6.86826 6.48175 10.1658 12.1553 16.2962 20.9186 22.8138 21.4804 23.8849 24.0454 23.9405 20.0048 15.0367 10.9524 10.0707 8.16731 8.00523 7.84902 7.664 10.098 9.9197 11.7961 6.87477 2.96323 -0.444609 -0.517365 -3.48057 -7.01178 -11.2316 -13.661 -12.1597 -12.2539 -10.4458 -5.98292 -12.1896 -19.3754 -20.5251 -23.3901 -24.9538 -21.8188 -23.7403 -24.7909 -28.9599 -32.9885 -37.616 -37.6778 -43.4527 -46.8138 -50.3262 -56.1193 -58.0239 -60.3364 -58.7155 -59.4741 -62.1152 -63.4883 -61.6304 -61.604 -56.7059 -55.0884 -51.3314 -46.0938 -47.2622 -43.3602 -41.6677 -36.9998 -32.4559 -29.3104 -24.3043 -17.3629 -17.0895 -18.5084 -18.198 -16.1486 -12.5718 -10.0556 -10.7053 -8.51641 -6.20005 -4.33615 -5.62598 -5.86666 -2.53248 -0.672637 -0.0172063 0
0 3.85244 7.70489 11.5573 15.4098 13.4212 11.4326 9.44403 7.45545 6.812 6.16854 5.52509 4.88163 2.16494 -0.551755 -3.26845 -5.98514 -6.03251 -6.07987 -6.12723 -6.17459 -5.56666 -4.95873 -4.3508 -3.74287 -4.85431 -5.96575 -7.07719 -8.18863 -6.40819 -4.62774 -2.8473 -1.06685 0.855464 2.77778 4.7001 6.62242 6.07996 5.53751 4.99505 4.4526 4.00145 3.55031 3.09917 2.64802 6.48877 10.3295 14.1703 18.011 19.8127 21.6144 23.4161 25.2178 21.6128 18.0079 14.403 10.798 9.80233 8.80663 7.81092 6.81522 8.16966 9.52411 10.8786 12.233 9.29773 6.36245 3.42717 0.491884 -2.72011 -5.9321 -9.14409 -12.3561 -9.67605 -6.99602 -4.316 -1.63597 -7.31767 -12.9994 -18.6811 -24.3628 -24.4051 -24.4475 -24.4898 -24.5322 -28.4032 -32.2743 -36.1453 -40.0164 -45.2384 -50.4604 -55.6824 -60.9044 -61.0975 -61.2906 -61.4837 -61.6768 -62.8383 -63.9997 -65.1612 -66.3227 -61.604 -56.8854 -52.1668 -47.4482 -45.8917 -44.3352 -42.7787 -41.2223 -36.1515 -31.0807 -26.0099 -20.9391 -20.6835 -20.428 -20.1725 -19.9169 -17.5221 -15.1272 -12.7324 -10.3375 -9.58148 -8.82544 -8.0694 -7.31336 -5.48502 -3.65668 -1.82834 0
0 3.13753 4.36993 7.54673 11.5192 10.6009 8.98736 8.62149 5.51538 4.68711 1.90164 1.41353 3.54692 1.96956 0.470802 -1.78723 -4.64126 -5.03133 -2.77672 -1.73201 -4.82145 -2.97373 -2.03532 0.162852 -3.03576 -4.31702 -1.84288 -2.11361 -6.40819 -6.23365 -3.7112 -2.83773 -1.10496 -1.32206 1.5009 3.72624 5.13699 4.26581 4.02265 3.20265 3.98462 2.67053 2.76161 4.41001 3.10619 4.63069 7.77646 10.6945 15.1034 14.6481 15.9312 20.3086 20.9835 16.8984 11.8027 10.733 10.6437 10.9636 10.3693 7.56896 8.13156 8.15175 10.1492 13.438 12.6699 8.52489 7.04713 4.78361 1.22442 1.38798 -3.3644 -5.08925 -11.0512 -8.05079 -7.45142 -5.98415 -5.65074 -10.2406 -13.8211 -18.6203 -25.3355 -27.2791 -27.6314 -26.9325 -28.1022 -30.6574 -34.6914 -39.7412 -42.355 -47.4433 -53.9958 -58.5514 -60.6606 -59.478 -60.6142 -62.3549 -63.8795 -63.3295 -64.3516 -64.303 -65.1612 -59.3722 -54.6 -53.0266 -48.8026 -44.3851 -42.5837 -41.3474 -41.9304 -35.8786 -30.7014 -28.0096 -24.5153 -23.4394 -21.3418 -22.3858 -21.5459 -18.2447 -18.5061 -16.6406 -12.1586 -10.4908 -7.16645 -9.30479 -7.68776 -5.30599 -3.32627 0.295204 0
0 0.517487 1.03497 4.33183 7.62868 7.0854 6.54211 5.05871 3.57532 0.605033 -2.36525 -0.0765238 2.2122 1.85278 1.49336 -0.902014 -3.29739 -1.38548 0.526419 -1.47095 -3.46832 -1.29011 0.888086 -0.720285 -2.32866 -0.0243297 2.28 -1.17387 -4.62774 -3.7112 -2.79465 -1.96885 -1.14306 -0.459519 0.22402 1.93779 3.65157 3.07968 2.50779 3.01222 3.51665 2.74478 1.97291 2.76863 3.56435 4.39388 5.2234 8.70962 12.1958 11.2219 10.248 13.4986 16.7492 11.1733 5.59742 8.04338 10.4893 11.2106 11.9319 10.6899 9.44791 10.1111 10.7743 11.9406 13.1068 10.4193 7.73182 4.84439 1.95696 0.580136 -0.796692 -5.27149 -9.74629 -8.82655 -7.90681 -8.78616 -9.66551 -12.1542 -14.6429 -20.4755 -26.3082 -28.5617 -30.8153 -31.2437 -31.6722 -34.3904 -37.1086 -40.9011 -44.6935 -51.1124 -57.5313 -58.9741 -60.4168 -60.1773 -59.9378 -63.01 -66.0823 -65.3929 -64.7036 -64.3516 -63.9997 -58.1571 -52.3145 -51.2358 -50.157 -45.4946 -40.8322 -41.7354 -42.6386 -36.4803 -30.3221 -29.2068 -28.0915 -25.1735 -22.2555 -22.7152 -23.1749 -22.53 -21.885 -17.9324 -13.9797 -9.74359 -5.50745 -6.78481 -8.06217 -5.52902 -2.99587 -1.49793 0
0 -0.515958 0.479385 2.05164 3.73814 5.70845 3.15675 3.44508 1.63525 2.33488 -1.37314 -1.27887 0.877491 -0.449951 0.479966 -2.5602 -1.95351 -3.02222 -0.079708 -0.497855 -2.11518 -0.481836 0.0249218 -2.0424 -1.62155 1.07397 0.644673 -1.77861 -2.8473 -4.10828 -1.96885 -4.13296 -1.18116 -0.449442 -0.0226257 0.308694 2.16614 2.89865 2.06925 3.75476 3.04868 3.79035 2.7518 3.31306 4.02252 3.62012 5.32704 7.00392 9.28825 9.91734 8.78932 9.37234 12.5149 11.1136 7.41403 9.41784 10.335 9.14379 11.5313 9.27574 10.7643 11.3146 11.9025 11.8428 13.5437 10.8492 8.21657 7.56231 2.6895 -0.695614 -1.32696 -3.69751 -8.44139 -10.0383 -10.1613 -10.1044 -13.6803 -18.1468 -18.8086 -20.4215 -27.2809 -27.6323 -32.1741 -35.4822 -35.2421 -37.3968 -40.6 -42.2223 -47.0321 -50.6366 -56.0906 -56.0006 -60.173 -60.1619 -62.5732 -62.2043 -68.285 -68.2085 -65.3929 -64.1166 -62.8383 -59.6782 -54.7929 -52.3813 -51.5114 -48.4102 -44.6463 -44.9029 -43.3467 -38.0777 -34.9857 -31.6329 -31.6677 -29.6926 -26.547 -25.0462 -24.8039 -22.856 -21.9562 -17.0756 -15.8008 -12.5881 -9.36195 -8.4381 -8.43657 -7.41754 -3.70068 -1.95848 0
0 -0.0381019 -0.0762039 -0.114306 -0.152408 -0.19051 -0.228612 -0.266714 -0.304815 -0.342917 -0.381019 -0.419121 -0.457223 -0.495325 -0.533427 -0.571529 -0.609631 -0.647733 -0.685835 -0.723937 -0.762039 -0.800141 -0.838242 -0.876344 -0.914446 -0.952548 -0.99065 -1.02875 -1.06685 -1.10496 -1.14306 -1.18116 -1.21926 -0.744266 -0.269271 0.205724 0.680719 1.15571 1.63071 2.10571 2.5807 3.0557 3.53069 4.00569 4.48068 4.95568 5.43067 5.90567 6.38066 6.85566 7.33065 7.80565 8.28064 8.75564 9.23063 9.70563 10.1806 10.6556 11.1306 11.6056 12.0806 12.5556 13.0306 13.5056 13.9806 11.341 8.70132 6.06168 3.42204 0.782408 -1.85723 -4.49686 -7.1365 -9.77614 -12.4158 -15.0554 -17.695 -20.3347 -22.9743 -25.614 -28.2536 -30.8932 -33.5329 -36.1725 -38.8121 -41.4518 -44.0914 -46.731 -49.3707 -52.0103 -54.6499 -57.2896 -59.9292 -62.5689 -65.2085 -67.8481 -70.4878 -68.285 -66.0823 -63.8795 -61.6768 -59.4741 -57.2713 -55.0686 -52.8658 -50.6631 -48.4603 -46.2576 -44.0549 -41.8521 -39.6494 -37.4466 -35.2439 -33.0411 -30.8384 -28.6357 -26.4329 -24.2302 -22.0274 -19.8247 -17.6219 -15.4192 -13.2165 -11.0137 -8.81097 -6.60823 -4.40549 -2.20274 0
0 0.0522606 -2.10391 2.48497 2.27042 -1.98857 0.725942 2.71969 1.35351 0.767499 0.322069 1.84722 2.52819 3.7139 3.10454 2.23837 -0.486039 0.745614 3.17592 5.63784 -0.461964 -4.43831 -3.51039 -4.39122 -1.92833 -0.357535 -1.4297 1.2088 -2.2255 -3.24154 -2.12333 -2.68128 -0.744266 -0.153234 -1.82129 -3.93478 0.0818349 3.37483 4.39963 5.35329 5.34143 6.84923 7.17989 6.17689 5.65517 6.86354 6.49468 5.0141 6.01157 7.38207 6.29353 2.64652 4.44496 8.71685 10.3396 11.3556 14.1072 13.7768 11.6412 10.2636 14.5457 14.6991 15.481 14.3594 14.4175 11.6182 9.10249 7.32111 3.82711 3.88838 0.394198 -0.882526 -5.80772 -9.50093 -10.1433 -9.0546 -10.4434 -14.4838 -16.5904 -18.9312 -22.2742 -24.9654 -29.927 -30.4128 -35.9464 -37.8284 -41.4477 -43.6601 -46.4338 -46.1241 -49.8754 -51.4551 -53.8409 -57.0363 -59.6393 -63.8446 -67.8481 -65.7542 -63.91 -61.7728 -62.8487 -60.4927 -58.4124 -55.1491 -54.4907 -53.3083 -53.2051 -49.8658 -44.2463 -42.3598 -39.7439 -37.0964 -33.9025 -32.4284 -30.0956 -29.3546 -25.6053 -22.4398 -21.8908 -20.2013 -15.8063 -14.0558 -8.74688 -7.02911 -7.44015 -6.39508 -6.73389 -3.82582 0
0 -2.06581 -4.13161 0.280821 4.69325 3.18687 1.6805 2.34617 3.01184 2.0185 1.02516 3.26938 5.5136 6.12806 6.74252 3.19003 -0.362447 3.33761 7.03767 3.43789 -0.161889 -3.17221 -6.18254 -4.56237 -2.94221 -2.40548 -1.86874 -2.62645 -3.38415 -3.24388 -3.10361 -1.68644 -0.269271 -1.82129 -3.37331 -1.94518 -0.51705 3.32575 7.16855 7.63536 8.10217 9.46563 10.8291 8.82938 6.82966 7.19417 7.55868 6.60058 5.64248 5.44944 5.25641 2.93284 0.609281 6.02891 11.4485 14.7412 18.0338 15.0928 12.1519 14.5813 17.0108 17.4711 17.9313 16.3928 14.8544 12.179 9.50366 6.86792 4.23217 3.4389 2.64562 -0.916653 -4.47893 -6.1749 -7.87086 -5.53127 -3.19169 -6.69907 -10.2064 -13.2506 -16.2948 -21.3079 -26.3211 -29.7009 -33.0807 -35.9423 -38.804 -41.1505 -43.497 -44.2989 -45.1008 -46.4268 -47.7527 -50.9114 -54.0701 -59.6393 -65.2085 -63.4731 -61.7378 -62.8792 -64.0206 -61.787 -59.5534 -57.8345 -56.1157 -57.0327 -57.9498 -51.1937 -44.4377 -42.1381 -39.8384 -36.1998 -32.5612 -30.957 -29.3529 -27.0653 -24.7778 -23.2659 -21.7541 -17.8724 -13.9906 -9.13397 -4.27731 -5.17332 -6.06932 -7.5658 -9.06229 -4.53114 0
0 2.03891 0.318923 4.30315 7.11608 7.67238 4.8071 7.01985 4.67017 1.56994 4.96581 7.05264 8.49902 7.51542 6.21355 1.61758 -0.238855 1.23905 3.59959 3.11952 0.138186 -1.89767 -4.2242 -3.82946 -3.95609 -3.44668 -3.60223 -4.75666 -4.5428 -5.20661 -2.80699 -2.58988 0.205724 -1.04619 -1.94518 -1.63962 -1.11593 5.21772 6.56148 8.62879 10.8629 10.467 11.1151 11.6828 8.00416 7.68689 7.30008 5.85127 5.27339 4.36432 2.08876 -0.903043 -3.2264 4.47096 10.4305 16.7025 21.9604 20.0859 18.0329 18.9351 19.4759 20.3031 18.3829 17.4074 15.2913 11.8795 9.94445 6.78187 4.63724 4.23228 2.12805 -1.82642 -3.15015 -2.34798 -1.56285 -0.0117497 4.05999 1.35988 -3.35931 -6.20426 -10.3154 -14.6043 -21.0819 -24.9671 -30.215 -34.5788 -35.6451 -38.1415 -40.5601 -41.6403 -40.8503 -41.0282 -41.6644 -45.8312 -50.9114 -54.665 -62.5689 -60.7957 -62.4423 -64.4115 -65.1926 -61.6549 -61.2092 -58.8562 -57.7406 -56.6452 -55.0214 -50.4895 -44.6291 -41.4179 -38.594 -33.6019 -31.2198 -30.0141 -27.9267 -25.4465 -23.9502 -22.2741 -19.2476 -16.0306 -12.175 -10.5984 -5.56041 -3.892 -4.6985 -4.40633 -5.36306 -1.45051 0
0 2.38473 4.76946 7.15419 9.53891 8.73631 7.93371 7.1311 6.3285 7.61748 8.90646 10.1954 11.4844 8.58451 5.68458 2.78466 -0.115264 0.0231175 0.161499 0.29988 0.438261 -0.913798 -2.26586 -3.61792 -4.96998 -5.15284 -5.33571 -5.51858 -5.70145 -4.10591 -2.51036 -0.914822 0.680719 0.0818349 -0.51705 -1.11593 -1.71482 2.11979 5.95441 9.78902 13.6236 12.5124 11.4011 10.2899 9.17865 8.11006 7.04147 5.97289 4.9043 1.9127 -1.07889 -4.07049 -7.06208 1.17517 9.41242 17.6497 25.8869 24.9004 23.914 22.9275 21.941 20.3878 18.8346 17.2814 15.7282 13.0567 10.3852 7.71377 5.0423 3.32639 1.61047 -0.105445 -1.82136 1.46189 4.74515 8.02841 11.3117 7.39975 3.48783 -0.424086 -4.336 -10.0893 -15.8427 -21.596 -27.3493 -29.9178 -32.4863 -35.0548 -37.6233 -37.1115 -36.5997 -36.0879 -35.5761 -41.6644 -47.7527 -53.8409 -59.9292 -61.538 -63.1468 -64.7557 -66.3645 -64.6147 -62.865 -61.1153 -59.3655 -55.7293 -52.093 -48.4568 -44.8206 -41.085 -37.3495 -33.614 -29.8785 -28.1895 -26.5006 -24.8116 -23.1226 -19.9318 -16.741 -13.5502 -10.3593 -8.60142 -6.84351 -5.08559 -3.32768 -2.49576 -1.66384 -0.83192 0
0 3.48545 4.6618 4.9992 8.77441 7.84168 7.23782 5.72819 7.98683 6.14106 5.27367 8.91708 10.2809 6.44082 5.49785 1.28445 0.00832812 1.19032 1.39734 -0.13437 -0.752105 -3.0473 -3.1355 -6.44648 -5.98386 -4.10082 -3.59486 -3.93724 -5.08169 -4.40834 -2.20948 -2.34698 1.15571 3.57318 2.7835 4.32827 2.11979 5.79286 9.46059 13.4826 16.3844 14.811 13.2073 10.7117 10.3958 8.57196 6.31517 4.39268 4.53521 5.18279 2.01493 3.04244 0.331085 7.87052 16.78 24.2203 29.8135 28.896 26.4481 25.6636 23.8394 22.4051 19.7829 18.2803 16.1651 12.145 12.1613 10.356 6.40292 3.54116 2.15613 -0.138021 -0.492577 2.5036 3.1311 5.96657 11.3682 8.68773 5.50731 4.31053 1.64339 -4.3985 -9.50395 -16.4533 -21.2988 -25.9919 -28.3224 -31.2467 -34.6864 -32.3505 -33.4616 -33.5057 -36.0879 -42.0548 -46.6819 -51.047 -57.2896 -61.916 -64.8572 -63.8226 -64.1778 -61.7297 -62.1874 -62.0481 -60.9904 -57.9675 -53.2235 -49.2395 -44.9127 -41.0184 -38.7232 -33.0377 -28.5371 -26.2303 -24.6807 -22.4726 -20.7932 -19.16 -16.3468 -11.7928 -8.54369 -9.60402 -7.25034 -5.04744 -2.88285 -2.21302 -0.0713648 -1.56622 0
0 2.27707 4.55414 6.28203 8.00991 7.27592 6.54192 8.09354 9.64515 5.64302 1.64088 5.35916 9.07744 7.19428 5.31112 2.72152 0.13192 1.38255 2.63317 0.345351 -1.94247 -2.97381 -4.00515 -5.50145 -6.99774 -4.42588 -1.85402 -3.15797 -4.46193 -3.18527 -1.90861 -0.138948 1.63071 3.85738 6.08406 6.01923 5.95441 9.46059 12.9668 16.0559 19.1451 17.0792 15.0134 13.3132 11.6129 8.60091 5.58887 4.87749 4.16612 4.63743 5.10875 6.4165 7.72425 15.9359 24.1475 28.9438 33.7401 31.3612 28.9823 27.36 25.7377 23.2345 20.7313 18.6666 16.6019 15.2696 13.9373 10.8504 7.76353 5.23266 2.70179 1.769 0.836207 1.17662 1.51704 6.47085 11.4247 9.47573 7.52678 7.57479 7.62279 2.22878 -3.16523 -9.20673 -15.2482 -19.7034 -24.1585 -27.954 -31.7495 -31.0365 -30.3235 -33.4616 -36.5997 -41.1055 -45.6112 -50.1306 -54.6499 -60.6087 -66.5675 -64.2793 -61.9912 -61.7505 -61.5098 -62.0626 -62.6154 -58.4846 -54.3539 -49.6794 -45.0049 -42.5508 -40.0968 -33.6463 -27.1958 -25.0283 -22.8609 -20.6623 -18.4638 -17.2082 -15.9526 -11.3403 -6.72804 -7.1926 -7.65717 -5.0476 -2.43802 -0.458457 1.52111 0.760555 0
0 1.37104 3.8973 5.93276 7.24541 6.62739 8.13164 9.76234 11.3035 9.23683 5.72851 6.23677 7.87395 6.04692 4.41795 1.6413 0.255512 -1.55756 0.330562 -1.77232 -3.13284 -4.87567 -5.33975 -7.61368 -8.01163 -6.76923 -3.98899 -5.16424 -3.84216 -1.61686 -1.11473 -0.0827155 2.10571 6.20217 7.09311 9.68664 9.78902 11.5624 16.0559 18.4321 21.9058 19.5822 17.1851 18.0172 12.8301 9.66794 7.16323 5.47847 3.79703 5.48536 9.03901 12.596 15.1174 21.0916 28.0997 32.0075 37.6667 35.8468 32.2731 31.8589 27.6361 24.6422 22.1182 18.245 17.0388 13.4093 13.9588 10.6871 9.12414 6.00171 4.84553 2.94967 2.16499 4.0042 4.51638 8.22158 11.4812 10.3914 11.5432 11.6338 13.6022 7.79939 2.526 -2.94575 -9.19768 -14.5372 -19.335 -25.9402 -28.8127 -31.5769 -31.0365 -34.5443 -37.1115 -39.5823 -44.5541 -51.9438 -52.0103 -55.2833 -60.0309 -58.7111 -59.8046 -60.669 -61.6257 -63.753 -64.2403 -59.338 -54.9405 -50.4996 -45.097 -39.812 -37.474 -32.559 -25.8544 -24.3348 -21.0099 -17.459 -16.1343 -13.6667 -12.2017 -7.67375 -4.91239 -5.05795 -4.98986 -3.97787 -1.9932 -2.12438 0.373463 1.03906 0
0 1.62023 3.24045 4.86068 6.48091 8.10113 9.72136 11.3416 12.9618 11.389 9.81613 8.2433 6.67046 5.09762 3.52478 1.95194 0.379103 -0.796473 -1.97205 -3.14763 -4.3232 -5.49878 -6.67436 -7.84993 -9.02551 -7.57473 -6.12396 -4.67318 -3.2224 -1.77163 -0.320851 1.12992 2.5807 5.34143 8.10217 10.8629 13.6236 16.3844 19.1451 21.9058 24.6666 22.0117 19.3569 16.7021 14.0473 11.3924 8.73759 6.08276 3.42794 8.1986 12.9693 17.7399 22.5106 27.2812 32.0519 36.8226 41.5932 38.5785 35.5639 32.5492 29.5345 26.5198 23.5051 20.4904 17.4757 15.728 13.9802 12.2325 10.4848 8.73701 6.98927 5.24152 3.49378 5.50475 7.51573 9.5267 11.5377 13.5487 15.5596 17.5706 19.5816 13.8994 8.21723 2.53505 -3.14713 -8.8293 -14.5115 -20.1937 -25.8758 -28.8127 -31.7495 -34.6864 -37.6233 -40.5601 -43.497 -46.4338 -49.3707 -51.4325 -53.4943 -55.5561 -57.618 -59.6798 -61.7416 -63.8034 -65.8652 -60.6962 -55.5272 -50.3582 -45.1892 -40.0201 -34.8511 -29.6821 -24.5131 -21.8361 -19.159 -16.482 -13.8049 -11.1279 -8.45082 -5.77378 -3.09674 -2.70964 -2.32255 -1.93546 -1.54837 -1.16128 -0.774184 -0.387092 0
0 -0.112786 1.66261 1.82775 5.23169 8.14025 11.5177 11.5454 11.4271 7.74457 8.32553 7.93189 7.58248 5.90685 4.92913 2.31478 0.502695 -3.48119 -5.25892 -4.82229 -6.60838 -7.95315 -6.58235 -6.83822 -7.41304 -4.78754 -5.90648 -3.80289 -4.15944 -4.74505 -4.313 -0.985512 3.0557 5.13296 6.67247 8.69317 11.885 15.9346 16.4923 18.4657 22.0117 17.8545 16.7941 15.6916 14.4503 12.7756 12.2401 6.01764 3.05884 8.9884 14.2856 18.9677 22.6235 26.8618 31.7008 35.4038 37.7345 37.5975 36.0091 33.7191 30.3011 28.4298 26.5131 20.382 17.9126 17.7754 15.8428 15.231 15.1844 13.8033 10.6163 6.14078 8.58128 10.1268 12.8953 13.109 14.6171 17.6459 22.6297 23.6204 25.561 18.8059 14.6078 11.3586 5.46216 0.130058 -6.45215 -15.5067 -20.1937 -22.6015 -28.5254 -30.3696 -34.3383 -37.348 -41.3684 -45.329 -46.731 -50.3887 -49.8667 -50.4285 -52.6162 -54.9141 -55.1048 -55.584 -60.2593 -57.0239 -51.5368 -47.3983 -43.7941 -35.8454 -30.6535 -27.393 -23.1717 -21.7885 -20.7994 -17.7732 -16.0507 -9.99568 -5.44946 -3.53603 -3.57104 -4.44308 -6.26731 -7.26535 -6.79386 -3.63614 -2.32761 -1.77633 0
0 0.0423865 0.0847729 2.03363 3.98248 8.64823 13.314 11.6032 9.89234 8.36363 6.83492 7.66471 8.49449 7.41398 6.33347 3.47988 0.626287 -3.95975 -8.54578 -8.71967 -8.89355 -7.69195 -6.49035 -6.14546 -5.80057 -5.74479 -5.689 -5.39274 -5.09648 -6.70081 -8.30515 -2.38723 3.53069 4.38673 5.24277 7.69459 10.1464 11.9929 13.8394 16.5982 19.3569 16.7941 14.2314 14.5423 14.8533 15.2979 15.7426 9.21618 2.68975 9.14587 15.602 19.1692 22.7365 27.0431 31.3497 32.6127 33.8757 35.165 36.4544 33.7611 31.0677 30.2945 29.5212 23.9354 18.3495 18.0274 17.7053 18.7947 19.8841 17.0638 14.2434 13.9561 13.6688 15.9719 18.2749 17.9857 17.6965 23.6981 29.6998 30.6201 31.5404 26.2694 20.9983 17.5349 14.0714 7.83931 1.60717 -6.45215 -14.5115 -19.9064 -25.3013 -28.1773 -31.0533 -35.1465 -39.2398 -41.6656 -44.0914 -45.1652 -46.239 -46.9267 -47.6144 -48.0412 -48.4681 -51.5607 -54.6534 -51.0999 -47.5464 -44.9727 -42.3991 -34.4275 -26.4559 -24.1432 -21.8304 -22.1351 -22.4398 -20.3682 -18.2965 -10.3723 -2.44809 -3.24671 -4.04534 -7.12871 -10.2121 -11.1257 -12.0394 -7.9602 -3.88105 -1.94052 0
0 0.554223 0.413402 -2.52577 2.73327 3.58364 8.73372 9.94192 8.3576 7.05928 7.70281 7.89251 9.40651 6.77292 5.96474 1.53704 0.749879 -2.62027 -7.4205 -9.22777 -11.1787 -7.42835 -7.25506 -5.1231 -4.1881 -4.76995 -5.23105 -5.05711 -6.03352 -6.63198 -4.77504 0.349885 4.00569 3.32856 5.40885 6.52963 8.40779 9.01553 12.0988 14.689 16.7021 15.904 14.5423 13.9428 15.2563 14.6612 12.274 6.93531 2.32066 7.61465 14.0295 19.091 22.8494 26.3909 27.955 30.2757 30.0169 32.2653 32.917 32.9682 31.8344 30.7372 27.7167 25.3336 18.7864 18.3292 20.9794 22.6044 24.5838 21.7905 20.4035 20.6599 18.7563 21.8044 21.0623 21.7584 20.7759 27.1949 31.6885 33.8774 37.5198 32.7601 29.1965 27.7433 22.6807 14.4718 7.83931 0.986931 -8.8293 -14.2028 -19.5582 -22.2856 -27.7683 -32.7719 -35.4438 -38.4645 -41.4518 -43.343 -42.2253 -42.3762 -42.6127 -41.5389 -44.4972 -45.3176 -49.0475 -47.1971 -44.5358 -42.7571 -41.0041 -32.5164 -27.9172 -24.7076 -20.4891 -21.5586 -21.7039 -21.7665 -20.5423 -16.3104 -8.16956 -5.30818 -4.51964 -8.98622 -11.9871 -13.2635 -17.2848 -12.1879 -7.57311 -3.43815 0
0 0.371016 0.742031 1.11305 1.48406 2.81876 4.15346 5.48816 6.82286 7.69678 8.5707 9.44461 10.3185 7.95726 5.596 3.23474 0.873471 -2.71087 -6.29522 -9.87956 -13.4639 -10.7418 -8.01977 -5.2977 -2.57563 -3.67436 -4.77309 -5.87182 -6.97055 -4.10774 -1.24494 1.61787 4.48068 5.0278 5.57493 6.12205 6.66917 8.51369 10.3582 12.2027 14.0473 14.4503 14.8533 15.2563 15.6593 12.2323 8.80542 5.37849 1.95157 7.20427 12.457 17.7097 22.9624 23.7613 24.5603 25.3592 26.1581 27.7689 29.3796 30.9903 32.601 29.2566 25.9122 22.5677 19.2233 21.7383 24.2534 26.7684 29.2835 27.9236 26.5636 25.2037 23.8438 23.8467 23.8496 23.8525 23.8553 28.7663 33.6773 38.5882 43.4992 40.4469 37.3946 34.3423 31.29 22.6807 14.0714 5.46216 -3.14713 -8.48117 -13.8152 -19.1493 -24.4833 -28.0655 -31.6477 -35.2299 -38.8121 -38.5118 -38.2115 -37.9112 -37.6109 -39.0686 -40.5262 -41.9839 -43.4416 -42.4835 -41.5253 -40.5672 -39.609 -34.4937 -29.3784 -24.263 -19.1477 -20.0578 -20.9679 -21.878 -22.7881 -18.3396 -13.891 -9.44249 -4.99395 -9.37804 -13.7621 -18.1462 -22.5303 -16.8978 -11.2652 -5.63259 0
0 -1.68908 0.629708 0.703771 1.19854 2.86804 5.23864 6.15898 5.28813 7.17497 6.27429 6.6313 7.99537 7.80892 3.44437 0.909995 0.997062 -5.21775 -3.98567 -8.16832 -9.44267 -7.18336 -2.51987 -1.93856 -0.963159 -1.83916 -1.73664 -2.90867 -3.94605 -3.25728 -0.746777 3.70252 4.95568 7.20655 8.23325 8.29047 6.22795 6.62544 5.71835 8.9732 11.3924 14.0729 16.3124 14.3941 12.2323 7.22686 3.82745 5.39723 1.58248 6.17815 11.0676 14.5901 18.6216 21.494 21.1308 21.5697 22.2994 26.3096 28.7763 29.3644 28.4125 28.0288 26.7613 24.5185 19.6602 23.2126 27.1503 29.3289 30.1082 28.3704 30.6442 31.3723 28.9313 33.8761 35.0055 35.4111 31.8428 39.655 42.2545 45.8087 49.4786 48.4408 43.6124 38.3016 34.3423 27.9842 18.2587 10.4318 2.53505 -2.34215 -9.64255 -13.4192 -19.4465 -24.6138 -29.9298 -34.4215 -36.1725 -37.8821 -35.8552 -35.4967 -34.3671 -35.6593 -37.4143 -38.2262 -37.8357 -36.7295 -36.8334 -34.6717 -34.0568 -27.7278 -23.9925 -23.0711 -17.8064 -20.3731 -22.4576 -19.967 -19.6753 -14.3734 -13.8081 -12.4004 -5.46825 -8.68773 -12.0021 -14.9985 -17.7591 -15.649 -10.0835 -4.96836 0
0 0.258692 0.517385 0.715198 0.913011 3.61841 6.32381 5.0386 3.75339 3.86564 3.97789 4.82505 5.6722 3.48247 1.29273 1.20669 1.12065 -0.277735 -1.67612 -3.54878 -5.42143 -1.2207 2.98003 1.81467 0.649311 0.974564 1.29982 0.189134 -0.921548 -0.585084 -0.248619 2.59103 5.43067 8.16112 10.8916 8.33915 5.78674 3.43261 1.07848 4.90804 8.73759 13.2545 17.7715 13.2884 8.80542 3.82745 -1.15052 0.0314337 1.21339 5.44582 9.67825 11.9795 14.2808 15.991 17.7013 18.071 18.4406 23.3068 28.173 26.1985 24.224 25.9172 27.6104 23.8537 20.0971 25.0721 30.0472 30.4901 30.9329 32.8289 34.7248 34.3718 34.0188 40.0901 46.1615 42.9959 39.8303 45.3311 50.8318 53.1449 55.458 52.6441 49.8302 43.6124 37.3946 29.9202 22.4459 15.3315 8.21723 1.37367 -5.46989 -9.93977 -14.4097 -21.3107 -28.2118 -30.8723 -33.5329 -33.5159 -33.4988 -32.3111 -31.1233 -32.7129 -34.3024 -33.2661 -32.2298 -32.1856 -32.1414 -30.323 -28.5046 -23.5556 -18.6066 -17.5358 -16.465 -20.2062 -23.9474 -20.2549 -16.5624 -15.1438 -13.7251 -9.83383 -5.94255 -8.09232 -10.2421 -11.615 -12.988 -10.9449 -8.90193 -4.45096 0
0 0.301481 0.344182 1.10284 0.627485 2.70802 3.41837 2.33222 2.21866 0.453464 2.41639 2.77016 3.34904 2.96399 1.2448 3.91938 1.24425 2.79312 0.159158 -0.838503 -1.40019 0.171337 3.11384 1.17598 2.26178 1.7661 2.90034 1.69953 2.10295 0.918309 2.75272 3.01875 5.90567 4.82618 8.26702 7.52807 5.34552 4.72329 2.6223 3.36066 6.08276 7.58142 10.2306 8.14766 5.37849 2.69323 0.0314337 0.559608 0.844299 3.38817 6.35771 7.74704 9.93994 11.6754 12.9312 13.0237 14.5818 16.4842 20.729 20.0489 20.0355 23.1538 23.0096 22.7417 20.534 26.3936 28.4119 30.3859 31.7576 34.5666 36.5564 37.3679 39.1063 45.3881 48.0805 49.5745 47.8178 53.1476 56.2214 56.7137 61.4374 55.8957 52.6441 47.2264 40.4469 34.6094 26.9931 20.0233 13.8994 4.57529 1.07645 -4.06461 -9.37283 -14.8104 -22.2533 -24.617 -30.8932 -32.5038 -29.9718 -29.259 -27.8796 -27.7664 -28.5646 -25.3223 -26.6239 -27.5905 -25.6752 -23.185 -22.9524 -20.8291 -17.0989 -12.882 -15.1237 -13.2998 -18.0034 -15.9412 -13.4496 -12.8682 -11.1695 -9.91475 -6.41685 -5.90796 -7.70523 -6.75665 -8.21677 -6.92433 -5.31236 -1.95786 0
0 0.0854899 0.17098 0.25647 0.341959 0.427449 0.512939 0.598429 0.683919 0.769409 0.854899 0.940388 1.02588 1.11137 1.19686 1.28235 1.36784 1.68114 1.99444 2.30774 2.62104 2.93435 3.24765 3.56095 3.87425 4.18755 4.50085 4.81416 5.12746 5.44076 5.75406 6.06736 6.38066 6.01157 5.64248 5.27339 4.9043 4.53521 4.16612 3.79703 3.42794 3.05884 2.68975 2.32066 1.95157 1.58248 1.21339 0.844299 0.475208 1.75619 3.03717 4.31815 5.59913 6.88011 8.16109 9.44207 10.723 12.004 13.285 14.566 15.847 17.1279 18.4089 19.6899 20.9709 23.8737 26.7766 29.6795 32.5824 35.4852 38.3881 41.291 44.1938 47.0967 49.9995 52.9024 55.8053 58.7081 61.611 64.5139 67.4167 61.4374 55.458 49.4786 43.4992 37.5198 31.5404 25.561 19.5816 13.6022 7.62279 1.64339 -4.336 -10.3154 -16.2948 -22.2742 -28.2536 -27.3491 -26.4447 -25.5402 -24.6358 -23.7313 -22.8269 -21.9224 -21.018 -20.1135 -19.209 -18.3046 -17.4001 -16.4957 -15.5912 -14.6868 -13.7823 -12.9209 -12.0595 -11.1981 -10.3367 -9.47534 -8.61395 -7.75255 -6.89116 -6.02976 -5.16837 -4.30697 -3.44558 -2.58418 -1.72279 -0.861394 0
0 -0.860111 -2.47917 -0.356257 1.93172 2.36541 3.27803 1.75534 3.66128 2.43584 2.47011 5.67621 5.5926 4.75485 3.24558 3.15237 1.71924 1.74927 1.0846 1.89045 0.30243 -0.742385 -0.452299 1.27985 2.89087 3.56684 5.92453 5.60054 4.89387 6.35961 5.48578 5.8058 6.85566 5.45496 7.27629 8.18376 4.24894 4.92575 4.80295 2.89461 0.339288 -2.8388 -4.82423 -1.66335 0.600502 2.81358 2.98475 1.31373 1.75619 2.10993 3.52885 1.80627 5.71576 8.45477 10.0804 11.9022 13.5591 13.9661 12.1175 13.9292 15.3914 17.4946 19.0747 21.0925 21.4078 27.2998 30.5025 30.7253 38.027 41.69 46.063 45.4415 47.0935 47.1913 49.4377 49.9177 52.006 53.1191 57.2745 60.0445 64.5139 62.2188 58.1289 51.6414 43.5845 35.9196 31.3249 28.0346 21.4521 13.3908 8.42794 2.60334 -1.12427 -5.8531 -14.272 -19.0489 -25.614 -25.7384 -26.7877 -26.2279 -23.881 -24.8204 -24.7232 -23.7852 -21.6425 -24.0424 -19.7321 -19.1655 -15.9389 -15.9528 -13.318 -13.3618 -12.484 -12.893 -13.1104 -12.1664 -8.59602 -12.5086 -10.3544 -8.67678 -8.55438 -5.9551 -4.77066 -1.15466 -1.09781 -1.49486 2.93419 1.71828 0
0 -2.56466 -5.12932 -0.803921 3.52148 4.7823 6.04312 6.34088 6.63864 5.36198 4.08532 7.12232 10.1593 7.72681 5.29429 3.68247 2.07064 1.12271 0.174768 -0.920709 -2.01618 -3.08421 -4.15225 -1.12237 1.9075 4.62785 7.34821 6.00425 4.66029 4.93889 5.2175 6.27408 7.33065 8.12038 8.9101 6.25184 3.59358 4.51667 5.43977 1.34521 -2.74936 -7.54378 -12.3382 -6.54439 -0.750568 2.00278 4.75612 3.89664 3.03717 3.52885 4.02053 4.92647 5.8324 8.9161 11.9998 14.1975 16.3951 13.6726 10.95 12.9429 14.9358 17.3381 19.7404 20.7926 21.8447 28.0366 34.2284 38.8501 43.4717 48.6048 53.7378 51.8655 49.9932 49.4346 48.8759 48.5413 48.2067 50.5723 52.938 57.2745 61.611 61.2054 60.7998 52.2348 43.6698 37.3896 31.1095 27.2161 23.3227 16.2779 9.2331 5.66028 2.08746 -5.08084 -12.2491 -17.6117 -22.9743 -25.0525 -27.1307 -25.1285 -23.1263 -24.8729 -26.6195 -24.4433 -22.2671 -21.2612 -20.2552 -17.3665 -14.4777 -12.7613 -11.0449 -11.1153 -11.1857 -12.6735 -14.1612 -10.5082 -6.8553 -9.4751 -12.0949 -11.1562 -10.2176 -7.29528 -4.37295 -1.56149 1.24997 4.42057 7.59118 3.79559 0
0 2.54377 -0.889411 5.25824 5.11124 6.2311 7.84515 10.1278 9.61599 9.98469 10.0142 12.532 14.726 13.3481 8.1637 6.4121 2.42205 2.08017 -0.882607 -4.17293 -4.3348 -6.08553 -3.75429 -1.08081 0.924123 3.67412 4.70757 5.17883 4.4267 5.05729 5.72719 8.1886 7.80565 6.59978 7.09592 3.61478 2.93821 2.79754 1.05894 -2.84197 -5.83801 -7.53732 -9.26394 -7.99213 -2.10164 1.16969 2.91466 4.31159 4.31815 4.58383 4.92647 6.46524 5.94904 10.272 13.0331 17.8162 19.2312 16.066 14.498 14.5635 14.4802 16.1311 19.056 20.2686 22.2816 28.9496 36.3841 43.7789 48.9163 53.136 54.4073 54.9586 52.8929 50.6827 48.5381 48.9777 44.4074 47.0537 50.5723 56.6563 58.7081 57.5084 55.3113 48.4093 43.7551 39.0174 33.2808 28.5471 25.1932 19.4334 13.5102 12.3734 5.29919 -2.38277 -8.4206 -15.9885 -20.3347 -21.4981 -23.3933 -21.9543 -22.3715 -21.9934 -24.593 -24.8705 -22.8917 -20.2611 -18.8955 -18.0607 -13.0165 -10.8335 -10.5586 -10.1773 -9.88745 -11.0458 -10.0714 -9.56579 -5.11459 -6.71408 -10.2769 -9.60296 -11.8808 -9.25662 -4.08611 -2.01173 3.59774 2.74118 5.28197 2.62673 0
0 1.67525 3.3505 5.02575 6.701 8.17408 9.64717 11.1203 12.5934 14.2682 15.9431 17.6179 19.2928 15.1629 11.0331 6.90328 2.77345 0.416735 -1.93998 -4.2967 -6.65341 -5.00487 -3.35633 -1.70779 -0.0592523 1.00384 2.06693 3.13002 4.19312 5.215 6.23688 7.25876 8.28064 6.7812 5.28175 3.7823 2.28285 -0.519525 -3.3219 -6.12428 -8.92665 -7.55817 -6.18968 -4.8212 -3.45271 -1.18975 1.07321 3.33617 5.59913 5.71576 5.8324 5.94904 6.06567 10.0661 14.0665 18.0668 22.0672 20.0566 18.0459 16.0353 14.0247 16.1981 18.3716 20.545 22.7185 30.6291 38.5397 46.4503 54.361 54.7189 55.0768 55.4347 55.7925 51.9964 48.2003 44.4042 40.608 44.4074 48.2067 52.006 55.8053 52.8141 49.8229 46.8317 43.8405 39.6463 35.4521 31.258 27.0638 22.4256 17.7874 13.1491 8.51092 1.95943 -4.59206 -11.1436 -17.695 -18.6755 -19.6559 -20.6363 -21.6167 -22.0916 -22.5665 -23.0414 -23.5163 -20.526 -17.5358 -14.5456 -11.5553 -10.8138 -10.0722 -9.3307 -8.58916 -7.28534 -5.98151 -4.67769 -3.37387 -5.91641 -8.45896 -11.0015 -13.544 -8.67165 -3.79926 1.07312 5.94551 4.45913 2.97276 1.48638 0
0 -0.773227 2.78203 6.10728 8.08859 11.1096 15.0504 15.581 15.5707 15.811 17.9669 19.3423 18.0548 14.666 9.13486 3.89532 3.12486 0.93715 -2.55531 -4.8567 -4.96677 -4.36956 -2.40921 -1.10472 -1.04263 -2.96013 -2.50311 0.113743 3.91832 3.29683 3.7341 5.82487 8.75564 4.24614 2.71441 2.02307 0.324562 -4.69311 -7.45372 -9.28968 -12.0153 -9.44225 -10.3869 -7.80116 -3.90931 -1.51725 3.97515 4.47736 6.88011 7.618 9.37244 8.85458 10.0661 12.6406 17.467 18.1678 24.9033 20.51 20.8927 16.6384 17.7532 16.3289 17.6703 20.7267 23.1553 30.9694 37.9731 46.138 52.2529 53.4641 56.0833 58.7897 58.6922 55.5046 51.8658 49.0271 44.4042 46.7262 47.645 49.829 52.9024 48.8782 47.1052 44.9656 42.7228 38.9454 35.2379 33.7482 28.9344 25.3729 18.8844 14.557 9.80938 5.22238 -1.99747 -7.47339 -15.0554 -14.5946 -15.5028 -20.1771 -20.3564 -21.9234 -21.3337 -22.61 -24.1409 -21.4887 -18.4881 -17.5668 -12.3428 -10.1236 -7.43248 -6.83517 -7.29087 -6.31447 -6.84633 -8.17204 -5.47952 -7.52053 -9.75878 -14.3772 -15.2073 -7.76862 -4.09915 -2.11212 1.93452 1.31615 3.2223 4.62581 0
0 1.10678 2.21357 5.84488 9.47619 14.9649 20.4536 19.5008 18.5481 19.2694 19.9908 18.4038 16.8168 12.0267 7.23661 5.35644 3.47626 0.152807 -3.17065 -3.22539 -3.28013 -2.37111 -1.46209 -1.74405 -2.026 -4.54957 -7.07314 -1.71481 3.64353 2.43743 1.23133 5.23098 9.23063 4.68886 0.147078 -0.743325 -1.63373 -6.60963 -11.5855 -13.3447 -15.1039 -14.844 -14.5841 -9.47499 -4.3659 1.25559 6.87708 7.51908 8.16109 10.5368 12.9125 13.4895 14.0665 17.467 20.8675 24.3034 27.7393 25.7394 23.7394 22.6106 21.4817 19.2254 16.9691 20.2807 23.5922 30.4994 37.4065 43.7757 50.1448 53.6173 57.0899 59.3409 61.5919 58.5616 55.5313 51.8658 48.2003 47.6418 47.0834 48.5415 49.9995 47.1935 44.3875 42.9963 41.6052 38.3144 35.0237 32.9143 30.8049 25.3932 19.9815 15.5447 11.1078 5.85248 0.597118 -5.90933 -12.4158 -11.8828 -11.3498 -15.223 -19.0961 -19.5985 -20.1008 -22.4331 -24.7655 -22.103 -19.4404 -16.2854 -13.1303 -8.96152 -4.79272 -5.39265 -5.99258 -6.85186 -7.71114 -7.64815 -7.58517 -9.32189 -11.0586 -13.9645 -16.8705 -10.6348 -4.39904 -3.23776 -2.07648 0.697685 3.47185 1.73592 0
0 1.1927 4.16963 6.45835 10.8638 16.6597 19.4154 18.1343 21.5254 21.5062 19.7063 15.4902 15.5789 11.0255 8.2483 8.02677 3.82766 3.19846 -0.517268 -2.22263 -1.59349 -1.95043 -1.70595 -1.63076 -3.00938 -4.97014 -3.76128 0.688667 3.36873 3.44058 3.9343 6.95678 9.70563 5.95007 1.23112 -1.43824 -3.59202 -7.6113 -12.5007 -13.3916 -18.1926 -15.3936 -13.9321 -9.38734 -4.8225 0.896361 4.79953 5.03025 9.44207 13.2438 14.6538 13.3974 18.0668 22.0791 24.3034 26.525 30.5754 30.0255 27.4572 28.4557 25.2102 24.2203 21.8357 22.5419 24.0291 28.7751 36.3019 43.784 48.0367 53.4156 56.8749 58.2669 64.4916 62.1481 58.5616 53.8129 51.9964 49.7244 48.5383 46.7871 47.0967 43.7688 43.0847 40.4635 40.4875 37.1054 35.9908 37.2403 32.6755 27.2701 22.0534 15.7612 12.4063 7.67304 1.94062 -2.41518 -9.77614 -11.3195 -11.6029 -14.3777 -17.8359 -18.6776 -20.698 -22.351 -25.39 -21.8091 -19.9002 -15.5256 -13.9178 -10.1454 -6.92169 -8.52225 -4.6943 -5.71018 -7.65369 -8.97891 -9.69082 -14.5975 -13.5277 -16.5835 -18.5337 -14.2643 -9.77337 -8.28292 -6.08747 -3.35554 -0.788693 1.90432 0
0 3.06285 6.1257 9.18854 12.2514 15.3142 18.3771 21.4399 24.5028 21.9623 19.4219 16.8814 14.3409 11.8005 9.26 6.71953 4.17907 3.15759 2.13611 1.11463 0.0931554 -0.928322 -1.9498 -2.97128 -3.99275 -2.22108 -0.44941 1.32226 3.09394 4.86561 6.63728 8.40895 10.1806 6.24789 2.31516 -1.61758 -5.55031 -9.48304 -13.4158 -17.3485 -21.2812 -17.2807 -13.2802 -9.27964 -5.2791 -1.27856 2.72197 6.72251 10.723 13.5591 16.3951 19.2312 22.0672 24.9033 27.7393 30.5754 33.4114 32.2932 31.1751 30.0569 28.9387 27.8205 26.7024 25.5842 24.466 29.8317 35.1973 40.563 45.9287 51.2943 56.66 62.0256 67.3913 64.4916 61.5919 58.6922 55.7925 52.8929 49.9932 47.0935 44.1938 42.9878 41.7819 40.5759 39.3699 38.1639 36.958 35.752 34.546 29.3357 24.1254 18.9151 13.7048 8.49444 3.28413 -1.92619 -7.1365 -9.49627 -11.856 -14.2158 -16.5756 -18.9353 -21.2951 -23.6549 -26.0146 -23.1873 -20.36 -17.5326 -14.7053 -11.878 -9.05066 -6.22334 -3.39601 -5.49612 -7.59624 -9.69635 -11.7965 -13.8966 -15.9967 -18.0968 -20.1969 -17.6723 -15.1477 -12.6231 -10.0985 -7.57385 -5.04923 -2.52462 0
0 5.3477 5.5825 8.31084 10.2012 14.1592 19.8544 20.3169 21.8768 21.0035 18.1673 14.0155 10.7543 8.63991 5.81612 5.35052 4.53047 4.14368 1.71968 2.33494 -0.743673 1.2308 -1.31342 -4.70644 -2.18298 -0.361413 2.02592 2.75217 3.44705 7.29315 5.7979 9.01446 10.6556 9.25415 7.40024 3.88986 -3.58032 -6.21464 -7.55181 -12.2934 -16.4366 -12.7864 -9.30667 -6.10913 -3.23835 2.55137 5.75651 8.73794 12.004 15.0163 17.624 20.0016 22.8827 23.0852 27.4366 30.2548 32.2932 33.0603 30.601 30.8871 28.789 27.1181 23.6616 24.3706 24.9029 28.919 34.2132 35.3641 38.5935 44.5535 52.2624 55.9885 62.0256 57.1748 55.2265 53.6049 52.5145 45.8611 44.8157 42.0704 41.291 41.2389 41.4478 40.9165 40.3974 39.5411 40.4621 34.496 32.4122 28.1229 23.4568 20.4294 14.7719 11.0124 8.12451 3.8246 -4.49686 -6.36705 -7.45723 -10.7792 -13.4573 -15.1214 -17.5236 -19.5416 -21.4521 -21.297 -17.3848 -15.4009 -14.4707 -13.298 -9.50764 -6.72434 -2.09772 -3.42983 -3.39772 -8.12306 -11.9156 -14.9709 -15.0361 -16.9519 -17.2354 -11.6819 -10.9897 -11.1163 -10.9454 -8.19569 -6.11643 -2.76816 0
0 2.51965 5.0393 6.59516 8.15102 14.7413 21.3316 20.2912 19.2509 18.0818 16.9127 12.0402 7.16758 4.76991 2.37224 3.62706 4.88187 3.09256 1.30325 -0.138628 -1.5805 -1.12877 -0.677036 -0.525121 -0.373206 2.06402 4.50124 4.15071 3.80017 4.37934 4.95852 8.04457 11.1306 11.808 12.4853 5.4375 -1.61034 -1.64909 -1.68783 -6.63992 -11.592 -8.46258 -5.33316 -3.26539 -1.19761 3.79672 8.79104 11.038 13.285 16.0689 18.8528 21.2755 23.6981 25.416 27.1338 29.1544 31.1751 30.601 30.0269 29.3331 28.6393 24.6301 20.6208 22.9803 25.3398 29.2844 33.229 32.2437 31.2584 39.5616 47.8648 52.2624 56.66 52.7605 48.861 49.0487 49.2365 44.4373 39.6381 39.0131 38.3881 39.7509 41.1138 41.2693 41.4248 42.6956 43.9663 37.1224 30.2784 26.5334 22.7883 19.3137 15.8391 14.402 12.9649 5.55383 -1.85723 -2.45783 -3.05844 -6.69878 -10.3391 -12.0456 -13.7521 -15.3209 -16.8896 -15.6496 -14.4096 -14.3228 -14.236 -12.1003 -9.96461 -5.38202 -0.799433 0.000681013 0.800795 -5.61696 -12.0347 -13.0551 -14.0755 -14.1747 -14.2739 -10.5528 -6.83164 -9.31195 -11.7923 -9.48794 -7.18363 -3.59181 0
0 1.62667 3.53232 3.93716 6.10084 11.6481 15.1782 14.529 16.6249 14.4884 11.9547 7.30251 3.5809 1.19347 2.58085 5.0968 5.23328 2.92087 1.23425 -0.0513809 -2.41733 -0.829246 -0.340471 2.91028 1.43657 5.62536 4.18881 3.30607 4.15329 6.78907 6.62601 7.29927 11.6056 12.4835 9.84522 4.43777 0.359649 -0.63201 -0.737197 -3.5841 -6.74738 -5.16269 -2.4213 -0.814131 0.843135 5.26552 9.07823 13.4564 14.566 16.0021 19.7204 22.442 24.5136 25.9466 27.1338 30.3668 30.0569 29.4663 29.3331 29.5566 28.4896 26.9856 23.9488 25.028 25.7767 26.1306 27.315 24.8418 23.9233 30.0643 39.5616 43.6583 51.2943 50.8056 46.5828 46.9782 45.9584 41.4527 38.6348 38.0514 35.4852 35.5171 39.5724 41.4836 42.4523 41.5746 39.3558 33.7567 28.1447 25.5903 22.3902 19.6859 16.9062 15.1134 11.8313 6.63228 0.782408 -2.77918 -1.69937 -3.82238 -7.22089 -7.34409 -9.84287 -11.7138 -12.3271 -13.1276 -12.5876 -14.2354 -14.0014 -12.4218 -7.97471 -1.24014 0.498855 -1.38043 -2.21856 -6.56271 -12.1538 -11.5239 -12.1937 -13.5068 -11.3124 -13.2015 -8.87505 -9.7387 -12.6392 -10.5358 -6.96333 -3.08633 0
0 1.01266 2.02533 3.03799 4.05066 6.53773 9.02481 11.5119 13.999 10.4978 6.9966 3.49541 -0.00577068 1.39184 2.78945 4.18707 5.58468 3.37497 1.16526 -1.04445 -3.25416 -1.62903 -0.00390697 1.62122 3.24634 3.56136 3.87638 4.19139 4.50641 6.39996 8.29351 10.1871 12.0806 9.64286 7.20512 4.76738 2.32963 1.27154 0.21344 -0.844657 -1.90275 -0.706096 0.490562 1.68722 2.88388 6.12465 9.36542 12.6062 15.847 18.2175 20.588 22.9585 25.3291 26.2315 27.1339 28.0363 28.9387 28.789 28.6393 28.4896 28.3399 27.8083 27.2767 26.7452 26.2136 23.8073 21.4009 18.9945 16.5882 23.9233 31.2584 38.5935 45.9287 45.1166 44.3045 43.4925 42.6804 40.1559 37.6314 35.1069 32.5824 35.3067 38.0311 40.7554 43.4798 39.1125 34.7453 30.3781 26.0109 24.0015 21.9921 19.9827 17.9733 14.3355 10.6977 7.05987 3.42204 1.54087 -0.340311 -2.22149 -4.10267 -5.01815 -5.93363 -6.84911 -7.76459 -9.26513 -10.7657 -12.2662 -13.7667 -9.87578 -5.9848 -2.09383 1.79714 -1.72038 -5.23791 -8.75544 -12.273 -11.2924 -10.3119 -9.33141 -8.35089 -9.63468 -10.9185 -12.2023 -13.4861 -10.1145 -6.74303 -3.37151 0
0 3.2863 3.93318 4.33029 3.47489 7.91693 9.67986 9.87209 11.373 8.00444 4.29715 4.29754 1.30635 1.59479 2.96119 4.93984 5.93608 6.58523 3.23186 2.31412 -0.256151 0.242013 4.08838 6.43139 5.05612 4.15039 4.54249 5.55279 6.43806 9.07138 9.34426 10.4855 12.5556 15.5935 12.9781 9.49154 5.67927 4.03951 4.66403 7.54943 2.94187 2.81852 5.79364 6.55398 6.96874 11.1324 10.1977 17.3481 17.1279 18.5275 19.0964 21.9053 24.6764 24.4823 27.0363 27.9876 27.8205 27.1709 29.0546 32.7931 27.8083 29.8614 29.4092 27.9176 26.6505 24.0998 23.0137 20.2391 18.9945 22.2018 29.4747 36.3132 40.563 40.9292 40.0192 40.3846 37.6899 35.2282 34.1957 32.0286 29.6795 31.9902 32.4097 35.6752 37.4156 33.4895 30.1684 26.5561 23.8771 23.2116 19.0809 17.0558 17.412 15.3153 12.7735 6.47502 6.06168 5.58589 5.0008 1.36735 -0.0187464 -1.0427 -0.544743 -2.6074 -3.20208 -2.13896 -5.44446 -6.31312 -8.14059 -2.74021 1.27814 1.75172 3.09543 0.442096 -3.08317 -6.96891 -7.89404 -8.61032 -9.84295 -5.45995 -5.38938 -8.41982 -7.0627 -7.63613 -9.67764 -6.58513 -4.7022 -4.21164 0
0 2.92052 5.84103 4.37007 2.89911 6.61701 10.3349 9.54099 8.74706 5.17238 1.5977 2.10809 2.61847 2.87571 3.13294 4.71021 6.28749 5.79297 5.29846 4.02016 2.74186 5.46126 8.18067 7.52328 6.86589 6.03724 5.2086 6.78915 8.36971 9.38236 10.395 11.7128 13.0306 15.8909 18.7512 13.89 9.0289 9.07176 9.11463 8.45056 7.78649 9.4416 11.0967 11.0752 11.0536 11.0418 11.0299 14.7194 18.4089 18.0069 17.6048 20.8143 24.0238 25.4812 26.9386 26.8205 26.7024 28.0862 29.47 28.3734 27.2767 29.4092 31.5416 29.3145 27.0874 25.857 24.6265 23.0137 21.4009 24.5459 27.691 31.4442 35.1973 35.4657 35.734 34.2167 32.6994 31.7297 30.7601 28.7683 26.7766 26.7825 26.7884 29.07 31.3515 28.4715 25.5915 23.6674 21.7433 18.9565 16.1698 16.5103 16.8508 15.85 14.8493 11.7753 8.70132 9.52161 10.3419 7.20354 4.06517 4.45466 4.84414 3.10228 1.36042 0.618583 -0.123259 -1.31885 -2.51444 3.01332 8.54108 6.4674 4.39372 1.73264 -0.928438 -2.22178 -3.51512 -6.44455 -9.37397 -5.90092 -2.42787 -2.8174 -3.20694 -4.53809 -5.86924 -4.26531 -2.66138 -1.33069 0
0 0.982253 3.35741 2.55732 2.32334 5.25005 6.47814 6.8328 6.1211 1.83462 2.98332 4.54386 3.9306 3.30762 4.62472 6.33918 6.63889 5.85064 6.58127 7.04122 5.73986 6.13377 8.89616 8.54598 8.67567 8.3912 8.28391 9.49377 10.3014 11.3624 11.7509 12.6054 13.5056 13.7829 16.8028 15.486 12.3785 12.6185 12.8583 14.8065 12.6311 11.9054 14.7231 13.1424 15.1385 15.6668 15.5635 17.3562 19.6899 18.0758 19.7248 22.3463 23.3711 24.2031 25.2654 27.4945 25.5842 28.7791 27.4049 27.5219 26.7452 29.3375 29.3145 29.3835 27.5243 24.6131 25.857 25.029 23.8073 24.7109 26.5154 28.7348 29.8317 27.9975 29.6631 29.1181 27.7089 27.0609 26.3024 24.8318 23.8737 24.0283 23.4427 25.7132 25.2874 24.6179 21.9705 23.0546 19.6095 18.0512 16.3859 14.8041 16.2895 16.3131 14.8518 13.0345 11.341 12.1263 11.7244 11.3547 8.14909 6.5312 8.10169 7.47869 5.92293 4.65427 4.7442 5.41468 3.11171 6.07755 8.20258 4.73808 5.69201 4.0379 2.59403 2.59171 0.8638 -1.85132 -2.50252 -1.37771 0.533638 0.151943 -0.292788 -2.63138 -2.06083 0.164732 -0.893795 0.222827 0
0 0.436893 0.873787 1.31068 1.74757 2.18447 2.62136 3.05825 3.49515 3.93204 4.36893 4.80583 5.24272 5.67961 6.11651 6.5534 6.99029 7.42719 7.86408 8.30097 8.73787 9.17476 9.61165 10.0485 10.4854 10.9223 11.3592 11.7961 12.233 12.6699 13.1068 13.5437 13.9806 14.4175 14.8544 15.2913 15.7282 16.1651 16.6019 17.0388 17.4757 17.9126 18.3495 18.7864 19.2233 19.6602 20.0971 20.534 20.9709 21.4078 21.8447 22.2816 22.7185 23.1553 23.5922 24.0291 24.466 24.9029 25.3398 25.7767 26.2136 26.6505 27.0874 27.5243 27.9612 27.5243 27.0874 26.6505 26.2136 25.7767 25.3398 24.9029 24.466 24.0291 23.5922 23.1553 22.7185 22.2816 21.8447 21.4078 20.9709 20.534 20.0971 19.6602 19.2233 18.7864 18.3495 17.9126 17.4757 17.0388 16.6019 16.1651 15.7282 15.2913 14.8544 14.4175 13.9806 13.5437 13.1068 12.6699 12.233 11.7961 11.3592 10.9223 10.4854 10.0485 9.61165 9.17476 8.73787 8.30097 7.86408 7.42719 6.99029 6.5534 6.11651 5.67961 5.24272 4.80583 4.36893 3.93204 3.49515 3.05825 2.62136 2.18447 1.74757 1.31068 0.873787 0.436893 0
0 1.56069 2.96027 1.07935 0.875881 0.263219 -0.582331 1.51344 2.104 3.28735 7.77624 6.36894 6.72185 9.88821 10.5926 8.35847 6.21975 7.4875 9.30653 8.99964 10.1122 12.5382 9.80805 10.1575 10.5608 13.6197 15.0523 14.6856 17.4458 19.1042 17.0388 18.2139 15.1529 14.1625 15.5904 16.394 16.6997 17.3992 16.4193 16.5936 17.2941 16.9789 15.2335 16.2201 19.6435 18.1005 18.9946 18.0181 21.4162 20.6432 23.3112 27.2023 27.7365 27.2433 27.5454 27.2247 26.5859 29.4685 28.4906 29.2813 28.3057 30.0761 31.3292 31.2927 27.5243 28.2801 30.8169 30.8922 30.7627 28.9482 25.4639 26.5644 24.2058 25.8104 26.6502 26.2784 25.3729 26.0056 25.7837 25.9078 24.4503 23.1941 21.9101 21.2341 22.3918 20.5632 20.7895 19.7665 17.9751 16.6213 13.6973 13.1051 13.6191 10.2602 10.2044 9.43721 10.6608 12.7507 11.1819 9.8887 10.7314 10.3823 10.9748 13.068 10.585 9.54799 7.26596 7.98994 7.23366 9.12459 8.49741 4.88253 5.22544 3.6967 6.14274 6.62153 2.66469 3.31516 3.19759 3.47471 2.40712 1.029 0.827141 1.45567 0.314703 0.284183 -0.565311 0.438242 0
0 2.52338 5.04676 2.52547 0.00418919 -1.89092 -3.78602 -1.53659 0.712848 5.94819 11.1835 9.69226 8.20099 11.6348 15.0686 10.2589 5.44921 8.09909 10.749 11.1177 11.4865 10.7455 10.0044 10.3203 10.6361 14.6908 18.7454 20.702 22.6585 21.8147 20.9709 18.6481 16.3253 16.3258 16.3264 16.9988 17.6712 16.954 16.2368 16.6746 17.1124 14.6149 12.1175 16.0906 20.0637 18.9779 17.8922 19.8768 21.8614 23.3196 24.7777 28.7662 32.7546 32.1266 31.4986 30.1022 28.7058 30.1736 31.6414 31.0196 30.3978 32.9844 35.571 31.3292 27.0874 30.8169 34.5463 34.929 35.3118 30.4499 25.588 24.7668 23.9457 26.8269 29.7081 28.8677 28.0273 28.875 29.7228 28.8263 27.9298 25.8265 23.7232 24.6417 25.5603 24.3949 23.2295 20.852 18.4745 14.6336 10.7927 11.1514 11.5101 8.53228 5.55444 6.44774 7.34104 8.29906 9.25707 9.24343 9.2298 9.91013 10.5905 10.6375 10.6846 7.80241 4.92027 5.32486 5.72945 7.43009 9.13074 6.29566 3.46059 4.81478 6.16896 3.12781 0.0866551 1.05646 2.02626 1.67267 1.31909 0.176005 -0.967079 -1.04262 -1.11817 -1.56129 -2.00441 -1.0022 0
0 -0.586473 2.08858 1.99494 -0.867503 -1.75829 -2.84517 -1.05008 -0.678302 1.71926 7.86422 9.39706 9.68012 9.9777 11.3012 5.93045 4.67868 9.5856 9.91031 9.46457 12.8608 11.9779 11.2577 12.5906 10.7115 16.2068 20.3404 23.7919 27.8713 26.568 23.4239 20.0295 17.4976 17.4748 17.7342 16.9617 18.6427 18.0411 17.2092 15.3235 16.9307 16.9853 15.472 19.7545 20.4839 21.2615 19.8601 21.2427 22.3067 27.2048 28.7745 32.5117 37.7727 36.0184 34.6834 34.4074 30.8256 31.7537 32.7026 30.6533 32.49 33.218 32.9844 30.8678 26.6505 32.3526 34.929 38.8238 39.8608 35.8272 29.7528 25.3089 23.6855 28.7343 29.0444 29.5179 30.6817 32.4535 31.9176 31.1574 31.4092 29.8733 28.5581 28.9635 28.7288 25.8296 24.4574 21.5874 18.9739 14.4148 12.0877 11.4292 9.40111 6.54385 4.77562 5.406 4.02127 5.72919 6.36056 7.2934 7.72819 8.96292 9.5728 11.3478 10.7841 9.20952 5.86131 2.5727 4.22523 5.92715 5.22835 3.05777 1.69574 1.67147 1.79985 -0.485665 -2.49138 -2.76113 -0.468467 -2.83383 0.231061 -1.0563 -1.69376 -2.96618 -2.55104 -2.12042 -1.99818 -2.25323 0
0 -0.434799 -0.869598 -1.3044 -1.7392 -1.82176 -1.90432 -1.98689 -2.06945 1.23773 4.5449 7.85208 11.1593 9.34648 7.5337 5.72092 3.90814 6.48989 9.07165 11.6534 14.2352 13.3731 12.511 11.6489 10.7868 16.3611 21.9354 27.5097 33.084 29.4805 25.877 22.2734 18.6699 18.906 19.142 19.3781 19.6142 18.8979 18.1816 17.4653 16.749 17.7878 18.8266 19.8654 20.9042 21.3661 21.8281 22.29 22.752 27.7617 32.7714 37.7811 42.7908 40.3294 37.8681 35.4068 32.9455 33.3546 33.7638 34.1729 34.5821 32.49 30.3978 28.3057 26.2136 30.7627 35.3118 39.8608 44.4099 39.1638 33.9176 28.6714 23.4253 25.903 28.3807 30.8584 33.3361 33.7243 34.1124 34.5005 34.8887 34.1408 33.393 32.6451 31.8972 28.7913 25.6853 22.5793 19.4733 16.428 13.3827 10.3374 7.29209 5.64444 3.99679 2.34915 0.701499 2.08277 3.46404 4.84531 6.22659 7.39086 8.55513 9.71941 10.8837 8.84302 6.80235 4.76169 2.72102 2.02349 1.32596 0.628425 -0.0691087 -1.31918 -2.56926 -3.81933 -5.06941 -4.0163 -2.96319 -1.91008 -0.856968 -1.6387 -2.42044 -3.20217 -3.98391 -2.98793 -1.99195 -0.995977 0
0 0.656942 -0.160639 -1.85611 -2.25865 -2.7727 -3.09134 -4.40382 -3.4606 -3.29043 2.76333 3.81207 7.51843 8.68181 8.80742 5.22387 3.1376 5.00008 7.23931 10.316 12.1656 11.7969 8.40715 7.45 10.8621 15.0659 20.4525 25.5039 29.119 25.4518 23.3069 22.4848 19.8422 19.8627 16.4759 20.2417 19.6333 18.0872 19.3264 19.0681 16.5673 14.9894 15.398 17.1404 20.7475 20.1119 21.433 22.6224 23.1973 27.7316 31.3083 33.4896 40.3378 40.7863 39.7838 36.961 35.0653 36.751 36.5 35.5412 34.1729 31.742 28.1111 25.6561 25.7767 30.8447 34.1336 36.0857 39.1638 35.3242 30.0343 27.4925 23.1651 28.15 30.2208 29.9507 33.901 34.5209 35.481 39.1879 38.3681 37.0202 35.6428 34.462 32.7076 31.6444 24.1621 20.2967 19.9727 16.1313 11.9127 8.56085 6.58073 2.21592 -3.0813 -3.60696 -2.61827 1.91556 3.60547 2.67371 4.50798 6.55579 7.36267 9.0002 10.9832 9.90761 6.33966 3.55661 2.55995 0.755743 -1.53867 -2.32208 -1.83396 -3.3335 -4.61593 -5.18486 -5.34426 -5.53958 -3.15407 -3.2909 -1.945 -1.92403 -1.92108 -2.85045 -3.63907 -2.14902 0.374737 0.638018 0
0 0.27416 0.54832 -1.1149 -2.77811 -3.52824 -4.27836 -4.56506 -4.85175 -1.935 0.981753 2.42968 3.87761 6.97937 10.0811 6.2241 2.36706 3.88701 5.40697 7.75154 10.0961 7.19972 4.30331 7.6204 10.9375 14.9535 18.9695 22.0617 25.1539 22.9453 20.7368 20.8757 21.0146 17.4122 13.8098 16.7312 19.6525 20.0619 20.4713 18.4285 16.3857 14.1775 11.9694 16.2802 20.5909 20.8144 21.0379 22.3402 23.6426 26.7439 29.8452 33.8651 37.8849 39.7922 41.6994 39.4423 37.1852 38.2107 39.2362 36.5 33.7638 29.7941 25.8243 25.5821 25.3398 29.1476 32.9555 33.4365 33.9176 30.0343 26.1511 24.528 22.9049 27.4829 32.0609 33.2634 34.4658 35.6577 36.8496 39.3486 41.8476 39.8701 37.8926 35.7053 33.518 28.0785 22.639 21.5555 20.4721 15.4574 10.4426 8.156 5.86937 -2.14501 -10.1594 -8.04872 -5.93805 -1.09558 3.74689 3.26813 2.78938 4.47979 6.1702 8.6265 11.0828 8.47988 5.87696 4.13791 2.39887 -1.00222 -4.4033 -4.00106 -3.59881 -5.1307 -6.66259 -6.14085 -5.6191 -4.48203 -3.34496 -3.18899 -3.03303 -2.22737 -1.42172 -2.35797 -3.29422 -0.276398 2.74143 1.37071 0
0 -0.843663 -0.680097 -1.59252 -3.29757 -5.05357 -5.00195 -4.90845 -6.2429 -4.31812 -2.26865 -3.94333 0.236787 0.235675 4.39605 4.61009 1.59652 3.86084 4.39925 5.71465 8.02659 6.91345 6.41296 8.96492 11.0128 14.7677 16.5627 19.0156 21.1888 20.0455 20.5141 23.3929 22.1869 21.1947 17.6674 18.654 19.6716 17.5486 19.1639 18.9963 16.204 15.8179 15.0597 17.498 20.4343 21.648 21.7216 22.6352 24.0878 26.1254 29.3007 32.4967 35.432 39.8937 39.4507 42.6441 39.3051 40.1606 38.2107 34.7404 33.3546 30.0881 27.265 25.3899 24.9029 27.1152 28.4506 27.5675 28.6714 24.3372 24.528 23.3342 22.6447 26.1227 30.5255 32.2755 35.0307 35.7175 39.5253 41.2012 45.327 42.3809 39.9326 37.1352 34.3283 27.772 25.4719 23.0788 20.9715 16.8334 11.7007 8.51594 5.15801 -0.795115 -7.11243 -9.49484 -9.25782 -5.90608 -1.43291 0.337774 1.07077 4.13799 5.74362 8.17225 11.1824 8.67592 6.27814 3.66521 2.23779 -1.7987 -3.4646 -3.9543 -5.36366 -5.97289 -6.65562 -7.01092 -5.89395 -3.69034 -4.51695 -4.87311 -4.12105 -2.0419 -2.66426 -1.33313 -2.94938 -1.3608 0.719579 -0.869743 0
0 -0.954256 -1.90851 -2.86277 -3.81703 -4.77128 -5.72554 -6.67979 -7.63405 -6.57655 -5.51904 -4.46154 -3.40404 -2.34653 -1.28903 -0.231526 0.825978 2.10875 3.39152 4.6743 5.95707 7.23984 8.52261 9.80539 11.0882 12.622 14.1559 15.6898 17.2237 18.7576 20.2915 21.8254 23.3592 22.4421 21.525 20.6079 19.6908 18.7737 17.8565 16.9394 16.0223 17.0862 18.15 19.2139 20.2777 21.3416 22.4054 23.4693 24.5331 26.6446 28.7561 30.8676 32.979 35.0905 37.202 39.3135 41.4249 39.3051 37.1852 35.0653 32.9455 30.8256 28.7058 26.5859 24.466 24.2058 23.9457 23.6855 23.4253 23.1651 22.9049 22.6447 22.3845 25.6873 28.99 32.2928 35.5955 38.8982 42.201 45.5037 48.8065 45.3895 41.9726 38.5556 35.1387 31.7217 28.3048 24.8878 21.4709 17.2148 12.9588 8.70271 4.44665 0.190587 -4.06547 -8.32153 -12.5776 -9.59515 -6.61271 -3.63027 -0.647832 2.33461 5.31705 8.29949 11.2819 8.98062 6.67932 4.37801 2.07671 -0.224597 -2.5259 -4.82721 -7.12851 -6.88858 -6.64865 -6.40873 -6.1688 -5.92887 -5.68894 -5.44901 -5.20908 -4.55795 -3.90681 -3.25568 -2.60454 -1.95341 -1.30227 -0.651135 0
0 -0.389623 1.19902 -3.62765 -3.05796 -3.76775 -6.78061 -6.87431 -7.01344 -7.03052 -3.40933 -0.671949 -4.61542 -3.68031 -4.87096 -3.16719 0.055438 0.296275 2.31707 3.53688 5.54412 7.48809 9.51422 8.41245 11.4146 11.7186 13.5833 15.5724 17.3664 20.6017 21.797 22.9888 24.5316 26.9623 25.6071 23.8683 23.976 18.3808 19.2402 19.9675 17.8216 16.8118 17.3105 17.5723 15.2286 17.4124 17.7141 22.1228 24.9784 29.2441 28.7845 30.5269 32.5046 31.4045 34.1612 36.8803 39.3135 37.1621 36.9897 33.6234 29.3452 28.7508 25.8485 25.2591 24.0291 22.4372 21.8613 24.3627 26.3504 25.4576 23.9541 22.4248 25.6873 29.5415 33.9751 37.5243 36.6165 40.8532 45.1732 50.065 52.2859 48.7722 44.5281 37.4954 32.817 29.3254 24.3165 20.7974 21.1312 16.4855 9.17239 4.3353 -2.6006 -3.66728 -6.38828 -12.178 -15.8974 -14.0269 -12.4706 -8.92831 -2.92572 2.46049 5.4976 3.93976 6.09774 3.67201 0.269541 -0.777791 -1.22838 -2.91909 -4.72843 -7.29896 -8.89336 -7.24205 -6.83095 -7.60021 -6.58197 -6.23428 -6.91965 -9.08939 -5.8859 -3.83718 -2.46781 -1.09989 -1.62014 -1.52027 -2.3721 -0.554677 0
0 2.15327 4.30654 1.00382 -2.29889 -5.06729 -7.83568 -7.11426 -6.39283 -3.84622 -1.29961 -3.5632 -5.8268 -7.13984 -8.45289 -4.58399 -0.715102 0.263757 1.24262 3.1869 5.13118 7.8185 10.5058 11.1234 11.7411 12.3759 13.0107 15.2599 17.5091 20.4058 23.3026 24.5032 25.7039 27.6966 29.6893 28.9752 28.2612 24.4425 20.6238 20.1223 19.6209 18.0459 16.471 13.3252 10.1795 11.6011 13.0227 19.2232 25.4237 27.1183 28.8129 30.4216 32.0303 31.5754 31.1205 34.1612 37.202 36.9981 36.7943 31.2696 25.7449 24.368 22.9912 23.2917 23.5922 21.6846 19.777 24.5263 29.2755 27.1394 25.0032 26.9966 28.99 33.9751 38.9601 38.2988 37.6376 42.8915 48.1455 51.9554 55.7654 51.4245 47.0837 38.7895 30.4954 25.4118 20.3283 20.5599 20.7914 13.0887 5.38601 -2.13092 -9.64785 -9.17947 -8.71108 -13.9641 -19.2171 -18.7728 -18.3286 -11.7661 -5.20361 0.237268 5.67815 3.29585 0.913559 -2.61334 -6.14024 -5.33685 -4.53347 -5.73221 -6.93095 -8.79458 -10.6582 -8.83573 -7.01325 -7.0042 -6.99514 -7.57275 -8.15035 -7.35654 -6.56273 -3.79577 -1.02881 -0.832277 -0.63574 -2.03883 -3.44192 -1.72096 0
0 0.203788 1.95808 1.30999 -1.53983 -5.49347 -5.40093 -5.35915 -5.77222 -3.57146 -4.0001 -4.9456 -7.03818 -5.22337 -6.85288 -5.4239 -1.48564 1.67418 1.13358 2.58664 4.71823 6.33377 9.42773 8.00679 12.0675 13.7585 14.0525 15.5706 17.6517 20.7275 23.112 28.0885 26.8762 28.8952 31.0647 33.8628 32.5464 27.0774 25.3247 24.2469 21.4202 19.0621 14.0607 8.36057 5.13037 12.5048 13.1102 19.9773 25.869 26.6194 28.7554 29.1513 31.5559 32.8878 31.5754 32.6694 35.0905 31.5166 31.278 26.5036 22.1445 21.2219 21.8113 23.4532 23.1553 23.4242 24.3495 28.5664 32.2007 33.7129 30.1819 31.5843 32.2928 35.0311 38.2988 39.8429 38.6586 45.9707 49.6737 54.4154 59.2448 51.5584 45.6859 35.3443 28.1737 24.3725 21.6552 22.4399 20.4517 11.8134 1.78542 -5.45742 -16.6951 -17.4412 -16.7553 -20.1097 -22.5369 -18.9119 -18.0683 -14.3044 -7.4815 -5.22683 -1.96448 -2.61117 -4.27062 -5.16803 -8.21973 -9.00533 -7.83856 -9.83439 -9.79837 -9.89866 -12.4231 -11.2696 -9.00898 -9.52639 -7.40832 -9.07312 -8.00964 -8.87429 -7.23955 -5.81864 -2.16023 0.233949 0.348661 -1.56668 -1.3877 0.948249 0
0 -0.195191 -0.390381 -0.585572 -0.780763 -1.87347 -2.96619 -4.0589 -5.15161 -5.9261 -6.70059 -7.47508 -8.24956 -6.75122 -5.25287 -3.75453 -2.25618 -0.615815 1.02455 2.66492 4.30528 6.32745 8.34962 10.3718 12.394 13.7441 15.0942 16.4443 17.7944 20.358 22.9215 25.485 28.0486 30.2443 32.4401 34.6359 36.8317 33.4286 30.0256 26.6225 23.2195 17.4349 11.6504 5.86581 0.0812607 6.63951 13.1978 19.756 26.3142 27.5061 28.6979 29.8897 31.0815 31.5559 32.0303 32.5046 32.979 29.3703 25.7616 22.1529 18.5442 19.5878 20.6313 21.6749 22.7185 25.8203 28.9221 32.024 35.1258 35.2432 35.3606 35.4781 35.5955 36.6165 37.6376 38.6586 39.6796 45.4408 51.2019 56.9631 62.7243 53.5062 44.2881 35.0701 25.852 24.417 22.982 21.547 20.112 9.14842 -1.81517 -12.7788 -23.7424 -24.2709 -24.7995 -25.3281 -25.8567 -21.8324 -17.808 -13.7837 -9.75939 -9.68324 -9.6071 -9.53095 -9.45481 -9.87702 -10.2992 -10.7214 -11.1437 -11.9047 -12.6658 -13.4268 -14.1879 -12.5963 -11.0047 -9.4131 -7.82149 -7.84521 -7.86893 -7.89265 -7.91637 -5.60401 -3.29165 -0.979296 1.33306 0.999796 0.666531 0.333265 0
0 -0.437076 -2.31616 -3.07438 -0.919218 -1.69425 -1.68894 -2.14748 -4.531 -4.97439 -5.17211 -5.94349 -7.18811 -4.09964 -3.82194 -2.92927 -3.02672 -2.24023 -0.200399 2.60958 4.27414 6.46734 8.05866 9.06283 12.7204 12.7851 13.9691 17.6208 19.1505 22.1901 24.9605 25.2218 29.2209 29.7796 28.896 34.0458 35.5181 32.9397 32.1317 28.4231 25.0188 20.6278 13.7008 8.6683 7.37494 16.224 18.8206 23.2732 26.7595 31.3427 30.8421 30.6125 29.8897 27.6581 30.6191 29.8476 30.8676 25.6626 24.938 22.5581 19.5962 21.3216 20.4936 23.2441 22.2816 23.2073 27.0438 30.6129 35.0665 36.3749 36.7449 37.535 38.8982 41.8433 43.0816 45.0932 45.4408 47.2943 52.6674 60.2264 66.2037 58.0901 48.6806 40.6628 31.3134 29.3334 25.9903 21.9619 19.7723 11.4997 2.39658 -7.90236 -20.3546 -24.9258 -27.454 -28.1528 -29.1765 -25.355 -22.7609 -19.6209 -15.9855 -15.6953 -14.7324 -14.7768 -14.639 -16.3655 -17.074 -16.8991 -14.7876 -11.256 -16.5268 -18.0009 -15.9528 -14.1693 -12.7166 -9.90641 -9.84999 -9.15159 -10.6958 -8.53211 -8.59319 -8.0146 -6.77497 -1.98349 -0.328161 1.63151 1.12954 1.14889 0
0 -2.12097 -4.24193 -2.6498 -1.05767 -0.734683 -0.411693 -2.16104 -3.91039 -3.77701 -3.64363 -4.88515 -6.12666 -4.25883 -2.39101 -3.09413 -3.79726 -2.6113 -1.42535 1.40883 4.243 6.00535 7.7677 10.4073 13.0469 12.9454 12.8439 16.6753 20.5066 23.753 26.9995 28.6963 30.3932 27.8725 25.3518 29.7782 34.2045 34.2212 34.2379 30.528 26.818 21.2846 15.7512 15.2099 14.6686 19.556 24.4434 25.8241 27.2048 30.0955 32.9862 30.8421 28.6979 28.9529 29.2079 28.982 28.7561 26.4352 24.1144 22.3812 20.6481 20.502 20.3558 21.1002 21.8447 23.5051 25.1654 30.0863 35.0072 36.5681 38.1291 40.165 42.201 45.3633 48.5256 49.8638 51.2019 52.6674 54.1328 61.908 69.6832 61.3781 53.073 44.9239 36.7748 32.8867 28.9985 24.2156 19.4326 13.0204 6.60832 -5.17926 -16.9668 -23.5376 -30.1084 -31.3023 -32.4962 -30.1049 -27.7137 -24.9626 -22.2115 -21.0346 -19.8578 -19.8405 -19.8232 -21.8359 -23.8487 -21.1401 -18.4315 -19.4096 -20.3877 -19.0527 -17.7176 -16.0731 -14.4285 -13.1535 -11.8785 -12.7006 -13.5227 -11.3963 -9.27001 -9.76415 -10.2583 -6.12384 -1.98938 -0.198417 1.59255 0.796274 0
0 -1.53785 -2.45461 -1.53589 -1.19613 -0.734375 -1.20678 -2.24283 -3.28978 -2.02345 -3.49005 -3.22497 -5.06521 -2.9195 -3.53103 -3.75636 -4.5678 -2.20757 -1.00208 1.54376 4.21186 6.3138 8.35397 10.5186 13.3733 16.0093 15.6516 19.5473 21.8627 25.8888 27.4889 29.669 31.5656 33.1701 28.7547 30.774 32.8909 31.5691 32.6174 33.0615 28.6173 26.3013 22.7937 19.2706 21.9623 23.5565 26.5595 27.5004 27.6501 29.652 30.0955 26.5337 27.5061 27.2616 27.3158 26.9542 26.6446 25.4255 23.8785 20.8309 21.7001 18.9407 21.1086 21.8743 21.4078 24.557 26.5476 28.9654 34.948 36.9498 39.9883 43.5504 45.5037 48.7343 52.1455 53.469 56.9631 59.1242 61.908 67.9696 73.1626 64.7856 57.6214 51.1477 42.2362 38.1521 31.1119 25.7075 19.0929 12.6513 5.44462 -4.53135 -13.5791 -19.874 -27.386 -30.4482 -35.816 -34.0271 -32.3067 -30.0277 -28.4376 -27.3565 -26.1427 -24.0205 -25.0074 -23.7134 -25.9021 -24.0328 -22.0755 -22.2432 -21.9356 -21.7651 -19.4825 -19.0114 -16.51 -14.3172 -13.907 -14.7016 -13.4011 -12.8587 -9.94684 -7.40422 -9.11302 -8.04321 -3.65061 -2.89908 -0.531683 -1.70101 0
0 -0.333646 -0.667292 -1.00094 -1.33458 -1.66823 -2.00188 -2.33552 -2.66917 -3.00282 -3.33646 -3.67011 -4.00375 -4.3374 -4.67105 -5.00469 -5.33834 -2.95857 -0.57881 1.80095 4.18072 6.56048 8.94025 11.32 13.6998 16.0795 18.4593 20.8391 23.2188 25.5986 27.9784 30.3581 32.7379 32.4477 32.1576 31.8674 31.5773 31.2871 30.9969 30.7068 30.4166 30.1265 29.8363 29.5462 29.256 28.9658 28.6757 28.3855 28.0954 27.6501 27.2048 26.7595 26.3142 25.869 25.4237 24.9784 24.5331 24.0878 23.6426 23.1973 22.752 22.3067 21.8614 21.4162 20.9709 24.4503 27.9298 31.4092 34.8887 38.3681 41.8476 45.327 48.8065 52.2859 55.7654 59.2448 62.7243 66.2037 69.6832 73.1626 76.642 69.4059 62.1698 54.9337 47.6976 40.4615 33.2254 25.9893 18.7531 11.517 4.28091 -2.9552 -10.1913 -17.4274 -24.6635 -31.8997 -39.1358 -38.0177 -36.8997 -35.7817 -34.6637 -33.5456 -32.4276 -31.3096 -30.1915 -29.0735 -27.9555 -26.8375 -25.7194 -24.6014 -23.4834 -22.3653 -21.2473 -19.9194 -18.5914 -17.2634 -15.9355 -14.6075 -13.2796 -11.9516 -10.6237 -9.2957 -7.96774 -6.63979 -5.31183 -3.98387 -2.65591 -1.32796 0
0 -3.06955 -0.947766 -2.37603 0.205795 -1.07345 -0.683001 -0.228419 -3.08824 -5.78998 -3.09027 -3.36307 -1.802 -5.17009 -6.07934 -3.51429 -3.39547 -0.820641 0.0581902 0.541545 7.07873 6.27323 8.55566 13.515 17.6041 17.1218 20.2486 20.5367 22.6332 26.0078 28.4296 30.6674 33.9102 31.7169 30.9674 31.0035 34.4532 32.0121 31.1767 30.5077 30.7508 30.4898 29.236 28.6199 27.8031 27.5411 29.7183 29.0122 28.3855 27.8253 29.44 30.3642 30.6688 29.8725 30.0605 27.0369 26.6106 26.3499 26.4067 25.8821 24.1897 21.6152 21.3006 21.3176 20.534 21.3182 26.1229 28.1341 33.6917 34.7867 36.0716 40.9799 43.6507 48.2786 48.737 53.7973 57.8454 61.3868 64.7105 68.0806 69.4059 64.5138 57.0776 51.6842 44.759 37.5448 26.7587 19.9976 14.0103 6.12665 -0.25472 -8.37414 -13.959 -19.006 -28.0592 -33.6946 -42.4555 -40.4087 -42.3614 -39.5568 -35.9122 -34.3594 -35.2144 -34.2305 -34.0402 -34.1624 -31.9997 -30.2259 -30.6301 -28.6723 -27.34 -25.7071 -22.8022 -21.8651 -19.6438 -18.7439 -16.5113 -17.056 -14.4734 -13.1049 -10.9494 -9.47336 -10.7332 -8.08157 -5.98721 -4.83039 -2.34334 -1.46121 0
0 -0.614119 -1.22824 0.258968 1.74618 1.19103 0.635875 -1.43571 -3.5073 -3.17569 -2.84408 -1.22216 0.399758 -3.54394 -7.48764 -4.47012 -1.4526 -0.378703 0.695191 5.33597 9.97675 9.07391 8.17107 14.8397 21.5084 21.7731 22.0379 22.0427 22.0476 25.4642 28.8809 31.9817 35.0826 32.4299 29.7772 33.5532 37.3291 34.3428 31.3565 31.2208 31.0851 29.8603 28.6356 27.4929 26.3502 28.5555 30.7609 29.7183 28.6757 30.1754 31.6752 33.3493 35.0234 34.8603 34.6972 31.6927 28.6882 28.9295 29.1709 27.3992 25.6274 23.1836 20.7398 20.4184 20.0971 22.2065 24.3159 28.4053 32.4947 31.3952 30.2956 34.3953 38.495 40.1018 41.7086 47.3376 52.9665 56.3522 59.7379 60.9539 62.1698 57.0776 51.9853 46.9028 41.8203 31.0562 20.292 14.7797 9.26738 2.23852 -4.79035 -11.2585 -17.7266 -24.5908 -31.4549 -38.6151 -45.7753 -46.7992 -47.8231 -42.4919 -37.1608 -37.5809 -38.0011 -37.945 -37.8888 -36.9663 -36.0439 -35.7924 -35.5408 -33.3687 -31.1966 -27.7769 -24.3572 -22.5267 -20.6962 -18.8917 -17.0871 -16.3772 -15.6672 -13.4712 -11.2752 -12.387 -13.4987 -10.0806 -6.66258 -4.34667 -2.03076 -1.01538 0
0 1.56521 0.592614 0.845914 3.28656 0.923942 0.438313 -1.68382 -3.92637 -3.66284 -1.30758 0.141069 2.60151 -1.00408 -1.93472 -0.727026 0.490274 3.65631 4.89908 9.31046 12.8748 15.7648 15.358 18.7755 25.4127 22.9803 23.5673 23.0963 21.462 23.8843 29.0163 32.4067 36.2549 35.0106 35.0157 37.6614 40.205 37.2199 34.3869 33.5896 31.4193 31.1418 28.1173 27.1307 24.8973 27.4419 28.5555 26.8535 28.9658 31.27 34.0847 35.3595 39.3779 35.3818 36.4925 35.2614 30.7657 32.0023 29.922 29.4219 27.0651 25.4932 22.3014 20.1676 19.6602 22.6964 24.489 25.9178 31.2977 30.6028 29.7189 31.5614 33.3392 37.639 38.7024 43.3173 48.0876 48.2125 52.5956 52.1285 54.9337 51.2331 46.9028 45.5388 38.8817 28.7841 19.0772 12.4026 4.5245 -1.76384 -8.76525 -15.3021 -21.4943 -30.0083 -35.1466 -42.0673 -49.0951 -46.6469 -46.9297 -42.7273 -38.4093 -38.3044 -40.3115 -40.7968 -41.7374 -42.2951 -40.759 -38.1547 -40.4515 -36.8138 -33.8056 -28.8661 -25.9121 -24.9276 -21.7745 -21.8078 -17.6629 -15.9172 -15.375 -14.2841 -11.601 -12.4533 -11.7344 -8.71229 -7.33796 -3.83416 -3.01872 -0.383524 0
0 1.20673 2.41347 3.6202 4.82694 2.53384 0.240751 -2.05234 -4.34543 -2.05826 0.228918 2.51609 4.80327 4.21074 3.61821 3.02568 2.43314 5.76805 9.10296 12.4379 15.7728 19.1588 22.5449 25.9309 29.317 27.2068 25.0967 22.9865 20.8764 25.0141 29.1518 33.2895 37.4272 38.8407 40.2541 41.6675 43.081 40.2491 37.4172 34.5854 31.7535 29.6762 27.5989 25.5217 23.4444 24.8973 26.3502 27.8031 29.256 32.8751 36.4942 40.1133 43.7325 41.0101 38.2878 35.5655 32.8432 31.7581 30.673 29.5879 28.5028 26.1829 23.8631 21.5432 19.2233 21.9427 24.662 27.3814 30.1008 29.6214 29.1421 28.6628 28.1835 31.9398 35.6961 39.4524 43.2087 44.3309 45.4531 46.5754 47.6976 44.759 41.8203 38.8817 35.9431 26.9027 17.8624 8.82199 -0.218375 -6.47926 -12.7402 -19.001 -25.2619 -32.0502 -38.8384 -45.6266 -52.4149 -49.2256 -46.0364 -42.8471 -39.6579 -41.1399 -42.6219 -44.104 -45.586 -45.5301 -45.4741 -45.4181 -45.3622 -40.8884 -36.4146 -31.9408 -27.467 -25.1599 -22.8528 -20.5458 -18.2387 -16.6607 -15.0827 -13.5048 -11.9268 -10.9484 -9.97006 -8.9917 -8.01334 -6.01 -4.00667 -2.00333 0
0 1.15468 1.98659 1.68095 2.86749 1.92165 1.29025 -3.19119 -4.7645 -1.54136 -1.0702 1.81243 4.12532 4.39473 4.66805 2.95568 4.37602 5.21475 10.8837 12.8573 18.7219 23.2365 26.0905 28.0243 33.2213 31.1789 31.1719 30.6359 26.5386 27.7284 31.8582 35.3801 38.5995 38.3385 39.606 40.3914 41.7116 40.8985 37.2546 35.2847 32.0877 33.4291 31.3232 28.3282 25.5217 26.8015 29.1293 28.808 29.5462 32.2809 37.2195 38.7452 41.7456 39.782 37.8241 35.3773 34.9207 33.5955 34.5948 31.0417 28.7057 26.0136 23.4356 21.5597 18.7864 20.3934 21.9975 24.2476 25.7051 25.3888 25.6451 25.2243 23.0277 24.7168 29.6396 31.3816 35.6957 38.5417 38.3151 40.046 40.4615 37.0988 32.093 29.8836 26.9027 18.8801 12.5788 3.69371 -4.96125 -12.3431 -17.772 -22.2267 -29.5569 -38.0425 -45.2202 -50.7287 -55.7346 -55.3032 -50.9233 -48.1172 -45.5777 -48.3744 -48.5895 -47.7654 -49.4346 -49.9389 -48.1444 -47.6348 -45.855 -43.7792 -39.0302 -35.9873 -29.0219 -29.152 -24.3831 -24.3282 -19.5436 -16.6464 -17.0495 -14.8143 -12.2526 -13.5326 -13.0234 -11.6275 -7.66374 -6.14365 -3.47814 -1.48891 0
0 0.779858 1.55972 1.23388 0.908043 1.6239 2.33976 -1.42191 -5.18357 -3.77644 -2.36931 0.539029 3.44737 4.58263 5.71788 6.01838 6.31889 9.49171 12.6645 17.1678 21.6711 25.6536 29.6361 33.3808 37.1256 37.1863 37.2471 34.724 32.2009 33.3827 34.5645 37.1682 39.7719 39.3649 38.958 39.6501 40.3422 38.7171 37.092 34.757 32.4219 33.7347 35.0474 31.3232 27.5989 29.7537 31.9085 30.8724 29.8363 33.8906 37.9448 38.8518 39.7587 38.5595 37.3604 37.1793 36.9982 37.7574 38.5166 33.7126 28.9087 25.9584 23.0081 20.6788 18.3495 18.8412 19.3329 20.3212 21.3094 21.7288 22.1481 20.01 17.872 20.7276 23.5831 25.8829 28.1828 29.6799 31.1771 32.2012 33.2254 27.7955 22.3657 20.114 17.8624 12.5788 7.29521 -1.20446 -9.70413 -16.254 -22.8039 -28.3279 -33.8519 -42.727 -51.602 -55.3282 -59.0544 -57.4323 -55.8102 -53.6539 -51.4975 -53.0273 -54.5571 -53.9202 -53.2833 -52.049 -50.8148 -48.5813 -46.3479 -43.9969 -41.6459 -36.1114 -30.5768 -28.2451 -25.9134 -23.381 -20.8485 -19.9324 -19.0163 -15.7973 -12.5783 -14.3275 -16.0767 -11.6954 -7.31415 -5.13188 -2.94961 -1.47481 0
0 0.0138873 0.0271456 0.223753 -1.0514 -1.34488 -1.08826 -3.05198 -5.60263 -4.72932 -2.16721 -1.19536 2.76942 3.79351 5.93297 5.96887 8.26176 11.8632 15.7758 19.7247 24.6202 28.1419 32.944 37.2271 41.0299 40.8578 40.7384 39.675 37.8631 37.3565 38.6927 37.6292 40.9442 41.4804 39.409 40.6999 38.9728 37.5986 36.2195 32.9398 32.7562 32.1127 33.7347 33.8549 29.6762 32.6626 31.4968 31.5493 30.1265 32.2536 35.5228 37.2 37.7718 36.1773 37.9147 37.7231 39.0757 37.3357 36.8752 31.3494 29.1116 25.4929 23.2016 18.8813 17.9126 15.3351 17.1649 14.3086 16.9138 16.6542 16.0937 14.4355 12.7162 13.6492 16.9709 19.4066 20.6698 21.4836 23.566 23.6329 25.9893 20.6853 15.8165 13.1546 8.82199 2.78497 -1.20446 -8.70725 -14.447 -20.9535 -26.8099 -32.1526 -38.1469 -47.0741 -52.835 -59.8278 -62.3742 -61.5767 -60.1629 -60.017 -57.4174 -55.6598 -58.358 -58.9408 -57.1319 -52.7972 -52.4859 -50.6452 -46.8407 -43.1366 -41.078 -36.642 -32.1318 -29.159 -27.243 -24.8014 -22.1534 -18.8383 -18.6802 -16.4286 -12.9041 -10.9766 -12.9996 -9.71115 -6.96455 -2.90909 -3.12854 -2.62701 0
0 -0.752712 -1.50542 -2.25814 -3.01085 -3.76356 -4.51627 -5.26899 -6.0217 -3.99341 -1.96512 0.0631737 2.09146 4.11976 6.14805 8.17634 10.2046 14.5458 18.887 23.2282 27.5694 31.9106 36.2518 40.593 44.9342 44.582 44.2298 43.8776 43.5254 43.1732 42.8209 42.4687 42.1165 40.9883 39.86 38.7317 37.6035 36.4752 35.3469 34.2187 33.0904 32.7562 32.4219 32.0877 31.7535 31.4193 31.0851 30.7508 30.4166 31.7587 33.1008 34.4429 35.7849 37.127 38.4691 39.8112 41.1533 38.1936 35.2339 32.2742 29.3145 26.3548 23.3951 20.4354 17.4757 16.2363 14.9969 13.7575 12.5181 11.2787 10.0393 8.79991 7.5605 8.95958 10.3587 11.7577 13.1568 14.5559 15.955 17.3541 18.7531 14.0103 9.26738 4.5245 -0.218375 -4.96125 -9.70413 -14.447 -19.1899 -25.0029 -30.8159 -36.6289 -42.4419 -48.2549 -54.0679 -59.8809 -65.6939 -65.1048 -64.5156 -63.9264 -63.3372 -62.748 -62.1589 -61.5697 -60.9805 -57.5688 -54.157 -50.7453 -47.3336 -43.9219 -40.5101 -37.0984 -33.6867 -31.1296 -28.5725 -26.0154 -23.4583 -20.9012 -18.3441 -15.787 -13.2299 -11.5762 -9.92243 -8.26869 -6.61495 -4.96121 -3.30748 -1.65374 0
0 -0.656252 0.17285 -1.52524 -2.65889 -2.29635 -2.36604 -4.62777 -3.65976 -0.174959 -0.728508 2.39657 5.71981 8.1031 6.89271 8.34755 12.1475 19.6263 23.4788 25.9481 30.3786 34.4279 38.6723 42.4175 44.1451 44.0923 41.9925 43.5718 43.077 44.1808 45.4999 46.1854 43.2889 43.5891 42.4198 39.0612 37.7415 40.8374 39.6551 38.2373 34.2187 34.7895 34.8786 33.9727 35.9484 34.7026 33.6471 33.5889 30.7068 32.6889 34.5513 32.1204 33.9431 34.3874 32.4895 36.0955 38.929 35.875 33.2213 30.6093 25.1859 24.736 21.1209 19.3606 17.0388 15.6832 14.1849 12.1571 12.623 12.5732 5.56634 6.8139 5.04324 6.96734 8.27979 6.8394 2.54564 5.32756 5.9961 10.6576 11.517 8.12514 5.04291 -1.23579 -7.08034 -10.5805 -15.019 -20.5979 -25.0029 -29.8244 -35.1043 -42.733 -48.5811 -52.4563 -58.7447 -65.4338 -69.0137 -69.9998 -65.7059 -67.3884 -66.7591 -66.0292 -66.0617 -62.9827 -62.0066 -56.6221 -57.2872 -50.9555 -48.6548 -43.6059 -39.6132 -37.8967 -35.2416 -33.3351 -30.7735 -27.8203 -26.9211 -25.5645 -22.0033 -15.7397 -14.459 -12.9848 -12.9976 -13.4011 -11.1346 -8.31918 -6.27188 -2.49337 0
0 0.925563 1.85113 -0.227898 -2.30692 -1.26136 -0.215806 -0.756815 -1.29782 -0.394861 0.508102 4.92813 9.34816 8.49276 7.63736 10.8639 14.0904 21.0805 28.0706 30.6292 33.1878 37.1402 41.0927 42.2244 43.356 41.5557 39.7553 41.192 42.6287 45.4038 48.1789 46.3201 44.4612 44.7204 44.9795 41.4296 37.8796 40.9215 43.9633 39.6551 35.3469 36.3411 37.3352 38.7393 40.1433 38.1763 36.2092 33.6031 30.9969 33.4994 36.0019 34.0516 32.1014 29.3056 26.5098 31.6073 36.7048 33.9567 31.2087 26.133 21.0573 19.952 18.8467 17.7243 16.6019 14.9874 13.3728 13.0503 12.7278 6.91057 1.09336 1.80967 2.52598 4.36345 6.20092 -0.932309 -8.06554 -6.01416 -3.96277 0.15907 4.28091 2.54967 0.818435 -6.56194 -13.9423 -17.1381 -20.3338 -25.5749 -30.8159 -35.1043 -39.3927 -47.0565 -54.7203 -59.0708 -63.4214 -67.8774 -72.3335 -69.6149 -66.8963 -68.5386 -70.181 -70.0727 -69.9645 -66.4986 -63.0326 -61.725 -60.4173 -55.1967 -49.9761 -44.3461 -38.7162 -37.7564 -36.7965 -34.8855 -32.9745 -31.6792 -30.3839 -28.0232 -25.6626 -20.6754 -15.6882 -15.8805 -16.0729 -15.8635 -15.6542 -12.4452 -9.23629 -4.61815 0
0 0.861966 0.524815 -1.73843 -1.95496 1.57971 0.347862 0.584705 1.06411 1.16506 5.26178 8.93188 12.9765 13.4015 12.4639 13.2075 16.0332 21.1136 28.2308 32.0349 35.9969 38.7247 40.6923 41.8204 42.5669 43.7271 40.7551 44.1041 42.1803 44.0335 46.2239 45.6105 45.6335 44.9586 43.7302 41.3866 38.0177 41.8576 40.9215 39.3734 36.4752 40.8545 40.2018 41.3227 44.3383 42.1662 38.1322 34.2598 31.2871 32.0985 32.9997 30.9917 30.2596 28.8694 28.4234 32.8428 34.4805 31.934 26.8684 21.0315 16.9286 18.0238 16.5554 15.1854 16.1651 14.9263 13.8528 13.3617 12.8326 6.47528 3.15391 0.998737 0.00871718 -2.218 -4.84865 -12.5197 -18.6767 -17.1395 -11.8512 -7.7387 -2.9552 -7.35052 -9.05518 -14.3255 -20.8043 -25.6766 -27.694 -32.4877 -36.6289 -42.1881 -47.0565 -53.2001 -60.8595 -65.0503 -68.2036 -72.3131 -75.6533 -75.9474 -72.4476 -71.5988 -73.6028 -71.7999 -70.5096 -67.6582 -64.0587 -60.0604 -59.6345 -52.1384 -51.2973 -46.5096 -42.4893 -40.0602 -38.3515 -39.5384 -35.7912 -34.5996 -33.8467 -31.8557 -26.6953 -21.6424 -16.9173 -17.7018 -18.7464 -18.4701 -20.1738 -14.6588 -10.7915 -4.13303 0
0 -0.400748 -0.801496 -1.20224 -1.60299 -0.345732 0.911529 2.16879 3.42605 6.72075 10.0155 13.3102 16.6049 16.9477 17.2905 17.6333 17.9761 23.1836 28.3911 33.5986 38.8061 39.549 40.292 41.0349 41.7778 41.7663 41.7549 41.7434 41.732 43.0004 44.2689 45.5374 46.8059 44.6433 42.4808 40.3183 38.1557 38.0177 37.8796 37.7415 37.6035 40.3359 43.0683 45.8007 48.5332 44.2942 40.0552 35.8162 31.5773 30.7874 29.9975 29.2076 28.4178 29.3774 30.337 31.2966 32.2562 27.3922 22.5281 17.6641 12.8 13.5321 14.2641 14.9961 15.7282 15.0305 14.3328 13.6351 12.9375 9.07595 5.21445 1.35295 -2.50854 -9.20338 -15.8982 -22.5931 -29.2879 -24.5138 -19.7396 -14.9655 -10.1913 -14.5601 -18.9288 -23.2975 -27.6663 -31.3602 -35.0541 -38.748 -42.4419 -48.5811 -54.7203 -60.8595 -66.9987 -69.9923 -72.9859 -75.9794 -78.973 -78.486 -77.9989 -77.5118 -77.0247 -74.0397 -71.0547 -68.0698 -65.0848 -61.9682 -58.8517 -55.7351 -52.6185 -49.4405 -46.2625 -43.0844 -39.9064 -39.2572 -38.6079 -37.9587 -37.3095 -32.5187 -27.728 -22.9372 -18.1465 -19.7832 -21.4199 -23.0566 -24.6934 -18.52 -12.3467 -6.17334 0
0 3.27285 3.55801 0.939581 0.406981 0.35775 0.308788 2.97555 5.78799 8.51602 9.81308 13.2685 17.2813 17.5312 16.4659 20.5036 19.919 23.1998 29.022 35.0494 37.1507 37.1974 38.31 39.7279 40.9887 40.6638 42.1802 42.8824 42.5635 45.2953 46.5918 44.7347 47.9782 44.6894 45.3564 43.0997 40.3183 39.6197 40.6709 39.4405 38.7317 41.0286 42.2265 43.142 45.7567 38.1332 35.632 32.3992 31.8674 30.3592 32.3576 29.5951 28.3255 31.7125 29.7663 28.4882 30.032 26.1604 22.4421 16.82 14.2675 16.5993 17.5414 17.6658 15.2913 15.2152 10.2052 11.6069 9.87846 7.30868 2.98438 -0.526137 -5.02581 -9.90254 -17.0637 -23.7653 -28.4301 -20.8615 -21.5809 -19.2158 -17.4274 -24.2581 -28.8532 -29.2817 -33.8534 -37.3116 -39.914 -46.7397 -48.2549 -53.994 -59.5293 -61.9289 -69.9923 -75.8682 -75.7026 -78.9078 -82.2928 -81.8396 -78.4622 -74.9302 -77.9487 -75.029 -71.1909 -68.8165 -66.1109 -62.9137 -59.1962 -58.3188 -53.8783 -51.6038 -49.1799 -46.8064 -41.4613 -38.1049 -34.0105 -36.6364 -36.6308 -32.4723 -31.1372 -25.0461 -19.3756 -18.5814 -18.4007 -22.2741 -21.4029 -16.2404 -9.44269 -5.06011 0
0 3.95876 7.91752 5.16724 2.41695 1.0615 -0.293953 3.92799 8.14992 8.88031 9.6107 13.7842 17.9578 16.7995 15.6413 18.7516 21.8619 25.7574 29.6529 32.5741 35.4953 35.9117 36.328 38.2638 40.1996 41.4025 42.6055 43.0003 43.3951 46.1549 48.9146 49.0326 49.1505 48.6913 48.232 45.3564 42.4808 42.9715 43.4622 41.6611 39.86 40.6223 41.3847 42.1824 42.9802 37.0945 31.2087 31.6831 32.1576 33.4376 34.7176 31.4754 28.2332 28.7144 29.1957 28.5017 27.8077 25.0819 22.356 19.0455 15.735 18.2768 20.8187 17.8365 14.8544 10.466 6.07758 6.44853 6.81947 3.78689 0.7543 -3.39438 -7.54307 -12.8861 -18.2291 -22.9007 -27.5723 -25.4973 -23.4222 -24.0429 -24.6635 -31.7206 -38.7776 -39.4091 -40.0406 -42.4073 -44.774 -49.421 -54.0679 -59.2031 -64.3383 -68.6621 -72.9859 -75.7026 -78.4193 -82.0159 -85.6126 -82.269 -78.9255 -78.8991 -78.8727 -75.0998 -71.327 -69.2319 -67.1369 -63.3388 -59.5406 -57.3393 -55.1381 -53.6177 -52.0972 -47.5567 -43.0162 -36.2146 -29.413 -32.6825 -35.952 -35.2492 -34.5464 -27.5756 -20.6047 -17.9931 -15.3814 -16.7469 -18.1124 -12.3256 -6.53869 -3.26935 0
0 5.04524 5.56799 4.51953 4.42693 6.6817 4.6807 7.45568 10.5119 11.5934 12.8515 16.8329 18.6342 21.7569 19.0852 21.8117 23.8047 27.2484 29.3095 31.663 33.8399 34.6796 35.8655 36.617 39.4105 40.7941 42.2226 46.5458 44.2267 45.6006 48.5957 51.2565 50.3229 48.5009 48.6913 47.6497 44.6433 43.6898 43.9617 45.0068 40.9883 39.3503 40.5783 41.2003 40.2037 38.125 33.1456 31.7231 32.4477 31.3138 32.5554 29.6255 28.1409 26.49 27.4498 26.5448 25.5835 25.8794 21.6853 18.0373 17.2024 16.4191 18.572 15.015 14.4175 9.58553 6.70931 5.80029 3.76049 0.351271 -2.59187 -8.27603 -10.0603 -14.458 -18.7231 -21.1649 -26.7145 -27.6506 -27.9592 -30.302 -31.8997 -36.3802 -42.2765 -41.4582 -46.2277 -51.3135 -51.9142 -56.4647 -59.8809 -65.3688 -68.3359 -71.2021 -75.9794 -80.233 -82.0159 -85.584 -88.9324 -86.9154 -82.7059 -79.135 -79.7966 -76.7673 -73.1409 -69.5097 -68.163 -65.1599 -61.482 -57.5851 -56.3978 -55.0953 -51.9945 -49.1404 -44.5711 -41.1509 -34.8867 -33.6242 -35.2733 -32.1504 -31.6876 -26.0453 -21.8339 -18.2485 -16.3394 -15.0312 -14.822 -10.3337 -6.15222 -3.63721 0
0 1.60922 3.21845 4.82767 6.4369 8.04612 9.65535 11.2646 12.8738 14.483 16.0922 17.7015 19.3107 20.9199 22.5291 24.1384 25.7476 27.3568 28.966 30.5753 32.1845 33.7937 35.4029 37.0122 38.6214 40.2306 41.8398 43.4491 45.0583 46.6675 48.2767 49.886 51.4952 50.3229 49.1505 47.9782 46.8059 45.6335 44.4612 43.2889 42.1165 40.9442 39.7719 38.5995 37.4272 36.2549 35.0826 33.9102 32.7379 31.5656 30.3932 29.2209 28.0486 26.8762 25.7039 24.5316 23.3592 22.1869 21.0146 19.8422 18.6699 17.4976 16.3253 15.1529 13.9806 10.6608 7.34104 4.02127 0.701499 -2.61827 -5.93805 -9.25782 -12.5776 -15.8974 -19.2171 -22.5369 -25.8567 -29.1765 -32.4962 -35.816 -39.1358 -42.4555 -45.7753 -49.0951 -52.4149 -55.7346 -59.0544 -62.3742 -65.6939 -69.0137 -72.3335 -75.6533 -78.973 -82.2928 -85.6126 -88.9324 -92.2521 -89.3692 -86.4864 -83.6035 -80.7206 -77.8377 -74.9548 -72.072 -69.1891 -66.3062 -63.4233 -60.5405 -57.6576 -54.7747 -51.8918 -49.0089 -46.1261 -43.2432 -40.3603 -37.4774 -34.5945 -31.7117 -28.8288 -25.9459 -23.063 -20.1802 -17.2973 -14.4144 -11.5315 -8.64864 -5.76576 -2.88288 0
0 -0.886571 0.318142 4.62972 6.4183 8.60744 7.98915 8.68665 9.89889 7.8581 13.5613 13.9596 15.4365 17.2613 18.5413 23.4027 23.5309 20.8116 21.2846 26.1741 28.9582 30.423 32.2759 35.5946 34.9321 36.8458 40.9917 43.7822 43.4044 42.0816 44.7556 48.6456 49.886 51.3847 49.8303 47.383 45.7723 44.6849 44.7271 44.1079 40.97 37.6587 35.2887 32.3245 31.0439 31.0444 32.8099 30.0376 28.508 27.517 27.455 26.3063 24.6646 25.3854 23.8432 22.3672 22.74 21.8455 19.619 19.2827 18.7366 17.6635 16.1356 15.381 13.5437 11.8882 10.4758 7.57205 1.10626 -0.691532 -6.48115 -6.43877 -9.31073 -10.988 -13.924 -17.0139 -24.3895 -24.9728 -26.9249 -28.8331 -34.507 -37.9353 -41.0439 -43.2073 -47.0521 -52.1426 -58.9766 -61.5248 -62.7781 -67.4132 -70.0588 -70.0396 -73.67 -79.1928 -84.6232 -85.3168 -89.3692 -88.1364 -84.1103 -82.9599 -78.4603 -75.5004 -76.0227 -72.5473 -68.7052 -66.91 -64.7482 -60.725 -58.6941 -57.0722 -54.0346 -51.5493 -46.1656 -44.7548 -42.0688 -37.0448 -35.0975 -30.4422 -29.145 -26.6124 -22.7873 -22.7875 -18.5334 -18.6204 -14.9882 -9.58344 -9.51648 -5.51735 0
0 -1.29108 -2.58217 1.90877 6.3997 6.36132 6.32295 6.62346 6.92398 8.97717 11.0304 11.2964 11.5624 13.0579 14.5534 17.9338 21.3143 17.4587 13.6032 19.6676 25.7319 27.4404 29.1488 30.1958 31.2427 35.6932 40.1436 40.9471 41.7506 41.4926 41.2346 44.7556 48.2767 49.3934 50.5101 47.6244 44.7387 44.8658 44.993 42.4083 39.8235 35.3146 30.8056 27.7331 24.6605 27.5989 30.5372 27.4077 24.2781 24.3974 24.5167 22.8987 21.2807 21.6316 21.9825 22.0516 22.1208 20.1721 18.2235 18.5134 18.8033 17.3746 15.946 14.5264 13.1068 13.3587 13.6106 7.56079 1.51102 -2.75661 -7.02424 -6.53406 -6.04387 -7.33734 -8.63081 -15.7765 -22.9223 -22.1379 -21.3535 -25.6159 -29.8783 -33.0954 -36.3126 -39.0009 -41.6893 -50.2941 -58.8988 -59.3805 -59.8622 -63.8231 -67.784 -68.0755 -68.3669 -76.0003 -83.6337 -85.0601 -86.4864 -84.1103 -81.7342 -78.9671 -76.2 -76.6453 -77.0905 -72.6559 -68.2213 -67.1472 -66.0731 -62.9019 -59.7307 -57.954 -56.1773 -51.1912 -46.2051 -44.9912 -43.7773 -39.6888 -35.6004 -32.5308 -29.4612 -25.9864 -22.5115 -21.1405 -19.7696 -19.1073 -18.445 -15.8561 -13.2672 -6.6336 0
0 1.28534 0.299542 0.736474 6.3811 4.21496 4.99564 5.82856 3.94907 6.85479 6.71225 5.95956 7.68826 10.1595 12.4505 16.8815 19.0976 17.5668 15.8417 17.7446 22.5056 24.3725 25.3603 28.0535 27.5534 32.7477 35.6486 36.2605 40.0967 40.7188 41.4926 43.6355 46.6675 44.6188 47.1875 44.4934 43.7051 41.6465 42.547 41.3389 38.6771 33.7845 27.7589 24.8902 18.2772 21.442 22.1967 20.6553 20.0482 20.0335 19.8411 17.1726 17.8967 20.1498 19.84 22.777 21.5016 19.9246 19.0665 17.841 18.8699 16.7249 15.7654 16.7706 12.6699 13.3486 10.4437 7.93934 1.91578 -2.08222 -2.80952 -3.33165 -2.77701 -8.8026 -9.1899 -12.9399 -21.455 -21.6134 -20.8289 -24.9519 -25.2496 -26.8672 -31.0524 -33.9996 -36.3266 -44.6987 -50.698 -54.0276 -56.9463 -58.2576 -61.8398 -63.6385 -63.0639 -69.9181 -76.4372 -81.2021 -83.6035 -80.2566 -78.9671 -76.8805 -73.9397 -73.5854 -73.2785 -69.2028 -67.7374 -65.166 -65.3009 -63.4958 -60.7673 -57.3371 -55.1106 -50.6621 -46.2446 -44.7508 -42.6112 -40.761 -36.1033 -32.916 -29.3722 -26.0853 -22.2358 -21.8345 -21.7144 -22.2758 -21.9017 -17.7769 -12.9732 -6.36186 0
0 1.59062 3.18125 4.77187 6.3625 5.01541 3.66833 2.32124 0.97416 1.68415 2.39413 3.10412 3.81411 7.08081 10.3475 13.6142 16.8809 17.4805 18.0801 18.6798 19.2794 20.4255 21.5717 22.7179 23.8641 27.5088 31.1535 34.7981 38.4428 40.0967 41.7506 43.4044 45.0583 44.4616 43.8649 43.2682 42.6715 41.3863 40.101 38.8158 37.5306 31.1214 24.7122 18.303 11.8939 12.875 13.8561 14.8372 15.8184 15.492 15.1656 14.8392 14.5128 16.1052 17.6976 19.29 20.8824 20.3959 19.9095 19.423 18.9366 17.2607 15.5848 13.9089 12.233 9.7549 7.27678 4.79866 2.32054 1.86287 1.4052 0.947527 0.489857 -4.62957 -9.74899 -14.8684 -19.9878 -20.1461 -20.3043 -20.4626 -20.6208 -23.2066 -25.7923 -28.3781 -30.9638 -36.7305 -42.4971 -48.2638 -54.0305 -54.9631 -55.8956 -56.8282 -57.7608 -63.5008 -69.2407 -74.9807 -80.7206 -78.4603 -76.2 -73.9397 -71.6794 -70.5729 -69.4664 -68.3599 -67.2534 -65.891 -64.5286 -63.1662 -61.8038 -57.9239 -54.044 -50.1641 -46.2841 -43.8647 -41.4452 -39.0257 -36.6062 -32.9447 -29.2831 -25.6216 -21.9601 -22.8097 -23.6592 -24.5088 -25.3584 -19.0188 -12.6792 -6.33961 0
0 -0.898189 0.553587 3.50085 3.40619 -0.320815 -0.203791 0.532338 -2.00075 -0.681349 -0.505858 0.980169 2.49668 4.34404 8.10265 12.3698 14.6643 14.3675 14.6098 16.4914 16.5997 15.719 14.3665 20.5193 20.1748 24.47 28.514 32.1772 34.7981 40.6053 40.4717 40.969 43.4491 38.8907 36.7211 40.7118 40.9494 39.9823 40.6275 38.3728 36.3841 30.0027 23.7951 19.4148 12.9008 12.4126 13.1657 13.5842 11.5885 10.3779 12.6997 13.3836 13.0476 12.3884 14.6258 19.1135 20.2631 19.9941 19.7195 19.6148 17.8138 16.3615 16.1427 12.5576 11.7961 14.0754 9.4003 7.08432 4.74575 4.26321 2.69322 2.7481 3.75672 1.40427 -6.25792 -10.4981 -13.5595 -14.0362 -15.6919 -16.0867 -15.9921 -21.1175 -22.9156 -24.6115 -28.782 -32.647 -44.227 -45.5645 -51.1146 -51.6531 -52.4543 -56.5474 -57.2651 -65.812 -67.5797 -72.3108 -77.8377 -73.9923 -73.3315 -72.474 -70.5729 -69.6043 -68.0761 -67.4282 -66.7695 -65.4561 -63.095 -62.4955 -60.3229 -58.7144 -53.7527 -48.7093 -46.3237 -44.0028 -41.4962 -38.0422 -35.8671 -31.8209 -26.8962 -22.5285 -21.6843 -21.462 -21.1082 -23.6199 -21.626 -15.5508 -10.2967 -5.05257 0
0 -1.03704 -2.07408 -0.812098 0.44988 -1.81302 -4.07591 -4.52578 -4.97566 -4.19075 -3.40585 -1.1133 1.17925 3.51851 5.85777 9.15268 12.4476 11.7935 11.1395 12.5297 13.9199 10.5406 7.16128 11.8234 16.4855 21.18 25.8746 28.514 31.1535 35.1732 39.1929 40.5164 41.8398 35.7085 29.5772 34.4022 39.2272 40.1906 41.154 38.1958 35.2376 29.0578 22.8781 18.3929 13.9078 13.1915 12.4753 9.91693 7.3586 8.7962 10.2338 10.9081 11.5825 11.5683 11.5541 15.599 19.6439 19.5867 19.5295 18.1103 16.691 16.6958 16.7005 14.0299 11.3592 11.4415 11.5238 9.34739 7.17095 5.5761 3.98124 5.50241 7.02358 2.12837 -2.76684 -4.94895 -7.13107 -9.1053 -11.0795 -11.2214 -11.3634 -15.7011 -20.0389 -23.3195 -26.6001 -36.2785 -45.9568 -47.0778 -48.1987 -48.6058 -49.0129 -52.8911 -56.7694 -61.344 -65.9186 -70.4367 -74.9548 -72.7089 -70.4629 -69.9647 -69.4664 -68.0761 -66.6858 -66.4857 -66.2856 -63.9735 -61.6614 -60.2517 -58.8419 -56.1516 -53.4614 -49.9123 -46.3632 -43.9552 -41.5472 -38.3376 -35.1279 -29.8186 -24.5093 -22.9589 -21.4086 -19.9828 -18.5571 -18.2253 -17.8935 -12.9038 -7.91412 -3.95706 0
0 -3.05265 -2.40272 -1.80651 -2.50643 -3.84652 -6.13501 -6.61303 -7.95057 -6.17098 -4.7982 -1.42661 -0.138183 1.12903 4.56855 7.86035 10.2309 9.65132 9.71343 10.7297 11.2402 8.5044 7.99748 12.6535 12.7961 17.2161 21.18 23.7874 27.5088 32.9206 35.2178 37.948 40.2306 36.6432 33.3897 36.9578 37.5051 38.4509 37.7589 34.7584 34.0911 26.5727 23.6556 20.126 14.9148 13.7704 9.94277 6.96346 3.12872 3.25089 7.00464 10.2332 10.1173 13.3988 12.5414 16.1364 19.0247 19.2396 17.9775 18.7253 15.5682 16.9551 14.583 13.3684 10.9223 12.9639 11.3886 10.6571 9.59616 10.8562 8.38529 9.34513 10.2904 6.63175 3.43733 0.786837 -0.702681 -2.29647 -4.63482 -5.655 -6.73463 -9.31816 -16.105 -19.855 -24.4183 -32.8941 -39.1292 -42.5158 -45.2828 -49.3305 -49.0427 -51.9673 -56.2737 -60.5968 -64.2011 -68.1104 -72.072 -67.0065 -69.3421 -68.65 -68.3599 -67.7407 -66.4857 -65.6648 -65.8017 -60.6871 -61.1302 -60.011 -57.361 -56.2985 -52.3112 -48.6041 -46.4027 -43.8385 -40.7966 -39.4176 -34.3888 -29.6029 -25.8813 -24.822 -21.1328 -20.4874 -17.1 -15.1429 -14.161 -9.32334 -6.56419 -5.18161 0
0 -1.36568 -2.73137 -4.09705 -5.46274 -6.82842 -8.19411 -9.55979 -10.9255 -8.55801 -6.19055 -3.82308 -1.45561 0.911853 3.27932 5.64679 8.01425 8.15082 8.28739 8.42397 8.56054 8.69711 8.83368 8.97025 9.10682 12.7961 16.4855 20.1748 23.8641 27.5534 31.2427 34.9321 38.6214 37.9118 37.2022 36.4926 35.783 35.0734 34.3638 33.6542 32.9446 28.6889 24.4331 20.1774 15.9217 11.666 7.41028 3.15456 -1.10116 1.33717 3.7755 6.21383 8.65215 11.0905 13.5288 15.9671 18.4055 17.4155 16.4255 15.4355 14.4455 13.4554 12.4654 11.4754 10.4854 10.8694 11.2534 11.6374 12.0214 12.4054 12.7893 13.1733 13.5573 11.5994 9.6415 7.6836 5.7257 3.7678 1.8099 -0.147998 -2.1059 -7.13853 -12.1712 -17.2038 -22.2364 -27.2691 -32.3017 -37.3343 -42.367 -45.7197 -49.0725 -52.4253 -55.778 -59.1308 -62.4836 -65.8363 -69.1891 -68.7052 -68.2213 -67.7374 -67.2534 -66.7695 -66.2856 -65.8017 -65.3178 -62.9583 -60.5989 -58.2394 -55.88 -53.5206 -51.1611 -48.8017 -46.4422 -43.2441 -40.0459 -36.8478 -33.6497 -30.4515 -27.2534 -24.0552 -20.8571 -18.25 -15.6428 -13.0357 -10.4285 -7.82141 -5.21427 -2.60714 0
0 1.91461 -2.15509 -4.7244 -8.02482 -7.68295 -7.91146 -8.92794 -10.1672 -10.357 -6.58105 -4.09515 -1.83236 -2.7463 0.806935 3.29858 5.79758 6.80197 4.87572 4.18633 5.67955 5.27001 6.73021 10.2025 8.97025 11.5428 18.4785 19.8079 23.9142 27.4671 30.7666 34.4696 37.0122 33.0374 33.4872 34.5187 32.5078 32.5558 29.8659 26.9904 28.252 24.9387 19.6997 10.4251 7.46729 3.36682 1.01321 -1.31292 -5.33104 -3.90336 -2.86201 1.0226 1.35088 2.24152 6.20246 9.62782 14.3579 12.8942 13.6757 11.6628 12.7185 11.0131 9.55379 9.17934 10.0485 10.0829 9.05742 9.94827 10.5958 10.0146 12.6799 12.7025 14.4823 15.6373 13.2622 13.0864 8.25898 7.34386 7.32438 3.80644 2.52284 -2.81857 -6.51264 -12.5608 -17.6328 -21.6856 -27.512 -32.2902 -37.7712 -42.1543 -43.967 -47.5857 -52.6182 -55.7111 -60.8148 -63.2296 -66.3062 -63.1356 -65.3742 -63.874 -61.3594 -62.4218 -63.9471 -65.3532 -62.9583 -61.1486 -61.0265 -59.3545 -56.1355 -55.3571 -52.5254 -52.3329 -46.4817 -44.9475 -40.0135 -37.5668 -35.3168 -34.1369 -30.2621 -24.8382 -21.1724 -15.7024 -14.4392 -12.5563 -9.55744 -8.02742 -4.40882 -1.67828 0
0 -0.789408 -1.57882 -6.08286 -10.5869 -9.10786 -7.62881 -8.5189 -9.40899 -8.19027 -6.97155 -4.59032 -2.2091 -1.93727 -1.66545 0.957734 3.58092 2.52248 1.46404 2.13131 2.79857 3.71266 4.62674 6.73021 8.83368 14.6526 20.4716 22.218 23.9643 27.1274 30.2905 32.8467 35.4029 32.5876 29.7722 29.5024 29.2325 27.3003 25.368 24.4637 23.5594 19.2628 14.9662 6.98952 -0.987127 -3.18549 -5.38386 -7.47239 -9.56092 -9.53022 -9.49952 -7.72495 -5.95038 -3.53714 -1.12389 4.59323 10.3104 10.6182 10.926 10.9588 10.9916 8.81684 6.64213 8.12689 9.61165 8.23654 6.86143 8.01583 9.17023 10.8704 12.5705 13.9889 15.4073 16.1451 16.883 13.8376 10.7923 11.8156 12.8389 9.99521 7.15157 3.14873 -0.85412 -6.94161 -13.0291 -17.8757 -22.7223 -27.9489 -33.1755 -36.0185 -38.8616 -44.16 -49.4584 -54.3023 -59.1461 -61.2847 -63.4233 -62.9753 -62.5272 -58.9962 -55.4653 -58.5369 -61.6086 -61.1037 -60.5989 -61.0265 -61.4541 -58.9226 -56.3911 -55.1404 -53.8897 -50.2055 -46.5213 -43.2512 -39.981 -38.4825 -36.984 -35.1274 -33.2708 -27.3792 -21.4876 -17.3616 -13.2356 -10.961 -8.68632 -6.14485 -3.60337 -1.80168 0
0 -5.62797 -4.71718 -9.45493 -13.149 -11.4067 -9.7153 -10.7519 -8.65075 -11.0241 -6.19955 -4.91414 -2.58584 -1.83776 -1.78648 1.2161 1.36425 1.00257 -0.221932 0.193037 -0.0824097 1.97288 3.71266 6.4576 8.69711 12.3496 18.3921 18.8748 24.0145 26.046 29.2075 34.1703 33.7937 29.1161 28.6027 27.9296 25.9573 25.1662 21.8981 21.9257 18.8667 14.0952 6.55263 0.00273776 -9.44155 -12.0346 -11.6711 -13.7129 -13.7908 -14.4815 -14.3932 -14.0365 -13.2517 -7.31121 -5.14636 0.425056 6.26281 6.60315 7.90122 7.88002 9.26461 7.9689 7.38995 7.11293 9.17476 8.7716 7.19496 8.40122 7.74466 14.6704 12.1793 14.304 16.3322 17.2778 16.7205 17.7557 13.3255 16.0885 14.4864 13.0223 11.7803 8.0331 2.71975 -3.23852 -8.42544 -10.8276 -18.3126 -23.8638 -28.5797 -32.9179 -36.2115 -39.4791 -46.2987 -49.684 -54.7722 -57.7199 -60.5405 -57.7022 -56.5973 -53.6684 -49.5712 -54.4299 -55.6936 -58.8393 -58.2394 -57.4111 -58.9226 -57.3103 -56.6466 -54.257 -52.8205 -50.1413 -46.5608 -45.169 -41.7202 -41.0228 -38.6512 -34.4776 -32.2445 -27.1398 -21.8029 -16.7053 -13.8834 -9.39996 -7.81521 -5.70461 -3.53771 -1.46133 0
0 -3.92777 -7.85553 -11.7833 -15.7111 -13.7564 -11.8018 -9.84715 -7.89251 -6.66003 -5.42755 -4.19507 -2.96259 -2.43505 -1.9075 -1.37996 -0.85242 -1.38016 -1.90791 -2.43565 -2.96339 -0.0824097 2.79857 5.67955 8.56054 12.4365 16.3126 20.1886 24.0646 26.0946 28.1245 30.1545 32.1845 29.8089 27.4333 25.0577 22.6821 20.5551 18.4281 16.3011 14.1741 6.15661 -1.86091 -9.87844 -17.896 -17.9271 -17.9583 -17.9895 -18.0207 -18.6537 -19.2868 -19.9199 -20.5529 -14.8609 -9.16883 -3.47679 2.21525 3.54585 4.87646 6.20706 7.53766 7.83771 8.13776 8.43781 8.73787 8.13317 7.52848 6.92379 6.31909 9.05363 11.7882 14.5227 17.2572 16.9076 16.558 16.2084 15.8588 15.9964 16.1339 16.2715 16.409 11.3513 6.29363 1.23592 -3.82178 -8.86234 -13.9029 -18.9434 -23.984 -28.7727 -33.5614 -38.3502 -43.1389 -46.7685 -50.3982 -54.0279 -57.6576 -54.1625 -50.6674 -47.1722 -43.6771 -46.7279 -49.7786 -52.8293 -55.88 -56.1355 -56.3911 -56.6466 -56.9022 -54.3267 -51.7512 -49.1758 -46.6003 -45.0298 -43.4594 -41.8889 -40.3184 -35.7683 -31.2183 -26.6682 -22.1181 -18.3246 -14.5311 -10.7376 -6.9441 -5.20808 -3.47205 -1.73603 0
0 -3.30555 -4.90082 -10.1635 -12.3907 -9.33642 -8.74557 -8.10787 -7.13427 -7.5802 -4.16701 -2.9013 -4.04427 -6.16121 -3.5279 -5.12037 -3.06909 -2.25047 -2.48375 -1.36427 -2.43565 0.0920228 4.50366 5.34878 8.42397 10.0183 12.6153 15.8974 22.2687 24.7308 27.591 28.5393 30.5753 28.1583 25.9704 22.838 19.6555 16.8492 16.1181 15.7484 9.48153 4.20036 -3.07281 -9.98392 -18.364 -16.2853 -17.7466 -19.7596 -22.2506 -19.6935 -19.6771 -19.6553 -21.5291 -12.7264 -7.40179 -3.56655 -1.8323 -1.56901 1.17297 2.54503 4.78016 5.99539 7.42231 8.25873 8.30097 10.3121 9.2117 10.8835 8.23275 11.3461 13.7539 17.0556 18.1822 17.7605 17.406 18.0214 18.8792 20.7794 20.7479 22.1036 21.0378 17.5601 13.0057 7.0123 0.799029 -4.86396 -9.13072 -17.5396 -19.3883 -23.58 -29.1765 -32.7198 -38.82 -43.6067 -46.9342 -52.2857 -54.7747 -54.8325 -50.3292 -50.8295 -44.3289 -43.2082 -46.999 -51.6417 -53.5206 -54.8321 -54.2456 -53.7028 -54.3267 -53.1883 -50.48 -46.5886 -46.6398 -44.7037 -43.553 -40.5267 -39.006 -32.0282 -29.4998 -25.5282 -22.4334 -18.9475 -15.3624 -10.8993 -8.13047 -7.83833 -1.97424 1.9754 0
0 -0.973048 -1.9461 -5.50826 -9.07042 -7.37989 -5.68935 -6.03269 -6.37603 -4.64125 -2.90648 -4.01622 -5.12595 -5.13712 -5.14829 -5.21702 -5.28576 -4.17267 -3.05959 -2.48375 -1.90791 2.15042 6.20875 7.24807 8.28739 8.60272 8.91805 14.6954 20.4728 23.7652 27.0576 28.0118 28.966 26.7367 24.5074 20.5681 16.6289 15.2184 13.808 9.29847 4.78892 0.252108 -4.2847 -11.5584 -18.8321 -18.1835 -17.5348 -22.0076 -26.4804 -23.274 -20.0675 -21.2864 -22.5052 -14.07 -5.63474 -5.7573 -5.87985 -4.20519 -2.53052 -0.25393 2.02266 4.36476 6.70686 7.28547 7.86408 9.3795 10.8949 10.5207 10.1464 12.933 15.7196 17.4134 19.1072 18.6806 18.254 20.0768 21.8997 23.6307 25.3618 25.5142 25.6665 22.6921 19.7177 12.5688 5.41984 0.530645 -4.35855 -9.57554 -14.7925 -19.792 -24.7915 -29.6463 -34.5012 -38.9857 -43.4701 -47.681 -51.8918 -50.9414 -49.991 -47.4858 -44.9806 -44.6 -44.2193 -47.6902 -51.1611 -51.6306 -52.1002 -51.9257 -51.7512 -50.48 -49.2087 -47.944 -46.6793 -45.163 -43.6467 -40.6702 -37.6936 -32.7374 -27.7812 -25.2649 -22.7487 -19.4711 -16.1936 -12.7552 -9.31685 -4.89664 -0.476428 -0.238214 0
0 -3.13988 -1.58049 -3.97334 -5.7501 -3.25989 -4.66701 -5.22807 -5.61779 -4.06441 -4.49045 -5.67648 -6.20764 -7.47945 -6.82625 -5.6759 -7.50242 -5.45537 -4.17267 -2.48139 -1.38016 0.650849 4.89483 8.77197 8.15082 8.32488 10.6828 13.5351 18.6768 22.2687 24.1859 26.6214 27.3568 24.661 21.3345 18.8259 13.6023 8.67368 8.39885 4.21222 0.0963075 -2.9814 -8.23349 -13.7279 -19.3002 -21.4031 -22.4445 -28.9163 -30.7103 -28.3104 -24.8832 -25.8505 -23.4814 -18.8385 -12.4255 -10.8828 -9.9274 -7.52747 -5.63208 -2.79942 -0.734833 1.41703 4.22792 5.81334 7.42719 8.49948 10.6885 11.3241 12.0601 13.1511 16.5925 17.4362 20.0322 19.8962 21.3514 23.4376 24.9201 24.9378 28.397 29.3873 30.2952 25.7484 22.2552 16.0852 10.0407 5.12773 0.0858288 -7.23455 -10.1968 -13.8365 -20.2619 -23.8824 -30.1824 -33.5641 -39.7325 -46.261 -49.0089 -47.1977 -48.098 -45.8064 -45.6324 -44.9272 -45.2913 -45.5634 -48.8017 -46.8655 -49.3107 -49.0787 -49.1758 -48.7185 -47.944 -46.4182 -46.7189 -46.3737 -42.2802 -42.2597 -36.3812 -33.674 -28.5026 -26.4213 -23.0639 -20.6316 -16.864 -12.1495 -10.5032 -6.90864 -3.16061 -0.809865 0
0 -0.607443 -1.21489 -1.82233 -2.42977 -3.03722 -3.64466 -4.2521 -4.85955 -5.46699 -6.07443 -6.68188 -7.28932 -7.89676 -8.50421 -9.11165 -9.71909 -7.50242 -5.28576 -3.06909 -0.85242 1.36425 3.58092 5.79758 8.01425 10.2309 12.4476 14.6643 16.8809 19.0976 21.3143 23.5309 25.7476 21.9546 18.1616 14.3686 10.5756 6.78266 2.98967 -0.803316 -4.5963 -8.38929 -12.1823 -15.9753 -19.7683 -23.5612 -27.3542 -31.1472 -34.9402 -32.3195 -29.6989 -27.0782 -24.4576 -21.8369 -19.2163 -16.5956 -13.975 -11.3543 -8.73364 -6.11299 -3.49233 -0.871674 1.74898 4.36964 6.99029 8.73615 10.482 12.2279 13.9737 15.7196 17.4654 19.2113 20.9571 22.703 24.4488 26.1947 27.9406 29.6864 31.4323 33.1781 34.924 29.8583 24.7927 19.7271 14.6615 9.59584 4.53021 -0.535418 -5.60105 -10.6667 -15.7323 -20.7979 -25.8636 -30.9292 -35.9948 -41.0604 -46.1261 -46.1656 -46.2051 -46.2446 -46.2841 -46.3237 -46.3632 -46.4027 -46.4422 -46.4817 -46.5213 -46.5608 -46.6003 -46.6398 -46.6793 -46.7189 -46.7584 -43.836 -40.9136 -37.9912 -35.0688 -32.1464 -29.224 -26.3016 -23.3792 -20.4568 -17.5344 -14.612 -11.6896 -8.7672 -5.8448 -2.9224 0
0 -0.463561 1.24303 2.21381 -1.67485 -4.93666 -7.66436 -9.3095 -7.71694 -7.76635 -8.01783 -6.4791 -4.40764 -8.92613 -10.6007 -10.2386 -9.11165 -7.51301 -4.96773 -1.9705 3.01779 7.64492 11.9048 10.0619 11.2901 9.317 14.5502 14.9533 17.8779 21.2341 22.7051 25.003 24.1384 22.9464 22.5273 18.7928 16.5449 8.25903 4.99691 -1.74955 -1.81231 -5.45996 -9.51989 -13.2637 -17.7704 -18.9043 -24.4815 -27.5838 -32.7564 -29.7793 -26.7407 -23.3474 -21.1008 -16.7731 -12.3326 -11.9172 -9.35983 -6.35619 -2.85754 -1.20627 -0.785633 1.37405 5.18332 5.55754 6.5534 7.27605 9.60588 10.8053 11.4998 12.6445 16.3092 20.1193 20.5817 25.3019 28.964 31.4026 29.5155 31.1359 29.8822 30.901 32.7412 26.6375 22.4187 20.1649 13.6154 8.56023 4.46355 1.31265 -2.69233 -6.46201 -14.549 -22.9804 -26.9373 -31.2394 -34.1043 -37.4078 -43.2432 -42.9974 -43.2648 -42.3862 -40.9235 -40.6073 -41.2393 -43.1805 -44.2107 -43.7332 -45.1349 -44.3333 -44.0726 -42.516 -39.8664 -43.2524 -43.836 -44.1382 -39.3106 -34.7706 -31.5929 -28.1243 -26.5176 -25.5707 -24.4776 -23.1846 -22.1177 -18.4153 -15.2152 -8.57281 -2.94141 -1.05219 0
