ncols 129
nrows 92
xllcorner 0
yllcorner 0
cellsize 2
0 1.85654 3.73864 5.81235 8.21934 10.9752 13.9942 16.9748 19.5568 21.4723 22.9395 24.4152 26.3355 28.8359 31.7219 34.6256 37.1723 39.271 41.1218 43.054 45.2998 47.9886 51.0949 54.2711 56.992 58.978 60.5792 62.2444 64.1124 66.0297 67.9482 69.7475 71.1897 72.0755 72.6408 73.1295 73.5921 73.8328 73.6572 72.9873 71.9769 70.7386 69.2891 67.4824 65.4062 63.219 61.1636 59.4637 58.3288 57.7657 57.3991 56.7544 55.5234 53.7616 51.6887 49.6574 47.9005 46.5118 45.2515 44.0872 43.1172 42.4799 42.1878 42.1158 42.2152 42.4589 42.9171 43.436 43.7468 43.6118 43.1126 42.1886 40.8708 39.1146 37.1308 35.107 33.4138 32.2657 31.5548 30.9433 30.0447 28.8272 27.5009 26.2876 25.225 24.1697 23.036 21.8095 20.7248 19.9208 19.402 18.7347 17.559 15.7157 13.5077 11.3933 9.64893 8.22275 6.79835 5.37371 4.14601 3.30702 2.65226 1.91811 1.09899 0.391221 -0.0999118 -0.329299 -0.318106 0.0181281 0.497416 1.02948 1.49661 1.98981 2.5423 3.2254 3.97641 4.68086 5.18511 5.31951 5.06414 4.46404 3.71017 2.94584 2.34172 1.91822 1.4844 0.848021 0
0 1.95148 3.99686 6.25311 8.75596 11.4762 14.3667 17.2428 19.7928 21.7835 23.4077 25.0448 27.0198 29.4009 32.0422 34.6957 37.1271 39.2567 41.238 43.335 45.6915 48.3298 51.2429 54.2121 56.779 58.6431 60.1361 61.7214 63.4844 65.2291 66.9515 68.6044 69.9615 70.8667 71.5404 72.2376 73.0231 73.656 73.8738 73.4822 72.6271 71.4225 69.8844 67.9114 65.6677 63.3688 61.2235 59.4603 58.2509 57.5589 56.9825 56.0893 54.7328 53.0342 51.1678 49.3821 47.8963 46.7815 45.8294 44.9277 44.1119 43.528 43.2094 43.1396 43.2224 43.4402 43.8818 44.4709 44.9695 45.1379 44.9794 44.3941 43.3777 41.8648 40.0188 38.0677 36.35 35.0485 34.0921 33.2373 32.1932 30.8607 29.4306 28.1669 27.0913 26.0407 24.8711 23.5791 22.3449 21.3352 20.5034 19.5355 18.1455 16.2563 14.1348 12.1537 10.5166 9.11206 7.66173 6.14321 4.79506 3.77587 2.88274 1.91235 0.941261 0.22296 -0.183473 -0.293784 -0.140024 0.262767 0.737465 1.15964 1.51668 1.96869 2.59718 3.41084 4.32739 5.22403 5.91975 6.19563 6.00713 5.4106 4.57991 3.70331 3.00555 2.48234 1.90214 1.0598 0
0 2.18426 4.45172 6.886 9.4496 12.1123 14.8671 17.5872 20.0839 22.1718 24.009 25.8063 27.7763 29.9447 32.2928 34.7138 37.1128 39.406 41.6596 44.0114 46.5098 49.073 51.7073 54.3321 56.6747 58.4592 59.9173 61.4187 63.0463 64.6511 66.2102 67.6714 68.8754 69.7436 70.5027 71.3286 72.2535 73.0771 73.5609 73.4597 72.8067 71.6056 69.9827 67.9482 65.7361 63.4756 61.3468 59.5047 58.1259 57.1696 56.2754 55.1791 53.7723 52.2222 50.5967 49.1082 47.8777 47.03 46.3662 45.785 45.2513 44.8198 44.5361 44.3901 44.4119 44.5905 45.0187 45.5709 46.1045 46.4292 46.5716 46.3301 45.6527 44.3728 42.7062 40.8945 39.307 37.9731 36.799 35.6847 34.4624 33.0822 31.5999 30.2429 29.0467 27.9111 26.6639 25.2902 23.8793 22.5705 21.346 20.0207 18.4307 16.5834 14.6589 12.8966 11.3826 9.99228 8.5134 6.93535 5.462 4.21472 3.08763 1.9426 0.945062 0.292068 -0.0115643 -0.0665532 0.100978 0.445826 0.830139 1.14734 1.44031 1.88094 2.56014 3.44537 4.41543 5.37967 6.19316 6.64356 6.59893 6.04078 5.15694 4.20499 3.41288 2.74387 1.99871 1.06386 0
0 2.35393 4.78458 7.33891 9.98769 12.6591 15.3031 17.8695 20.2601 22.4125 24.4237 26.3569 28.2572 30.1783 32.2468 34.5442 37.0327 39.6447 42.3483 45.0932 47.7436 50.1326 52.3232 54.4381 56.4324 58.1278 59.6069 61.0889 62.6455 64.168 65.5947 66.8494 67.8765 68.7161 69.5344 70.4278 71.3932 72.2716 72.8871 72.9551 72.388 71.1602 69.4921 67.5471 65.556 63.5655 61.581 59.6853 58.0487 56.7481 55.5966 54.3911 53.0258 51.5802 50.1574 48.9421 48.0069 47.3773 46.9439 46.6399 46.3965 46.1897 45.9923 45.829 45.806 46.0124 46.4036 46.8367 47.2695 47.6855 48.0226 48.0066 47.471 46.3175 44.7822 43.1902 41.8081 40.5766 39.332 38.0297 36.7037 35.3326 33.8603 32.3788 30.997 29.7262 28.4044 26.9257 25.3079 23.6612 22.0064 20.2861 18.4647 16.6553 14.9999 13.5634 12.2565 10.9231 9.44139 7.82391 6.24166 4.80615 3.46446 2.21094 1.23785 0.701797 0.471515 0.365236 0.373814 0.543137 0.797511 1.02695 1.26764 1.66362 2.31435 3.18748 4.14456 5.07189 5.91602 6.50171 6.59562 6.0665 5.14793 4.16686 3.32209 2.55101 1.74107 0.878996 0
0 2.35716 4.80522 7.4245 10.1544 12.8865 15.4961 17.9398 20.2066 22.3535 24.4722 26.5328 28.392 30.0937 31.9583 34.2192 36.9294 39.9841 43.2945 46.5712 49.4025 51.4868 53.0088 54.4013 55.8795 57.3839 58.8855 60.4566 62.086 63.6345 64.973 66.0316 66.8763 67.6672 68.5334 69.4955 70.511 71.4179 72.0088 71.9862 71.3196 70.0466 68.4538 66.6864 65.0168 63.3902 61.6917 59.8385 58.0513 56.5544 55.2807 54.0944 52.7789 51.4035 50.1193 49.1721 48.4929 48.0254 47.7194 47.5957 47.5747 47.5319 47.4136 47.2245 47.2009 47.424 47.7688 48.0092 48.3138 48.7837 49.2702 49.304 48.7259 47.5365 46.0778 44.6747 43.558 42.583 41.4794 40.1881 38.8342 37.4813 35.9696 34.3126 32.7115 31.3471 30.0044 28.4489 26.6138 24.6027 22.4895 20.3277 18.2321 16.4284 15.0665 14.0578 13.1121 11.9803 10.5526 8.89555 7.22863 5.69276 4.26662 2.95771 1.99174 1.48851 1.23165 0.921097 0.652988 0.578501 0.717871 0.87 1.02388 1.27101 1.78331 2.58415 3.49166 4.36474 5.1802 5.82955 5.96549 5.39447 4.3945 3.40674 2.59192 1.88787 1.21263 0.581654 0
0 2.25473 4.654 7.26715 10.0271 12.7868 15.3987 17.7855 19.9567 22.0638 24.2644 26.4585 28.3877 30.0431 31.7742 34.0228 36.9343 40.4717 44.4278 48.2792 51.2972 52.9951 53.7366 54.2656 55.1198 56.3552 57.8689 59.5807 61.3285 62.9109 64.1663 65.0702 65.8025 66.5744 67.497 68.5325 69.5777 70.4273 70.8401 70.5921 69.7814 68.5497 67.1084 65.5808 64.1811 62.8854 61.4605 59.7738 58.0448 56.555 55.3416 54.2454 53.0498 51.7743 50.6395 49.8651 49.3411 48.9601 48.7493 48.7485 48.8319 48.8444 48.7055 48.4797 48.4199 48.6171 48.8407 48.9157 49.1025 49.6048 50.1567 50.2078 49.5725 48.359 46.9232 45.6283 44.6962 43.9865 43.1694 42.0747 40.7988 39.3953 37.7385 35.838 34.0432 32.6033 31.3192 29.7785 27.8157 25.4669 22.8782 20.2605 17.9292 16.1956 15.1255 14.5141 13.9257 13.0094 11.6552 9.99039 8.29595 6.76944 5.37349 4.08142 3.05888 2.44584 1.98435 1.40458 0.832186 0.573277 0.635572 0.769377 0.820832 0.90002 1.21554 1.86309 2.66813 3.47073 4.27165 4.93104 5.0467 4.37363 3.24914 2.19217 1.44256 0.937039 0.552576 0.25635 0
0 2.25429 4.62504 7.16779 9.82254 12.4931 15.0553 17.4256 19.5817 21.7203 23.9848 26.2906 28.3465 30.1036 31.83 34.0244 37.0027 40.8548 45.3123 49.6127 52.7535 54.1093 54.1496 53.9088 54.1885 55.1877 56.738 58.5428 60.3283 61.8291 62.9707 63.8096 64.5299 65.3388 66.306 67.3801 68.3696 69.0182 69.1502 68.7127 67.8814 66.7785 65.5567 64.2694 63.1008 61.9862 60.7838 59.3634 57.9117 56.65 55.6062 54.6726 53.67 52.6133 51.6624 50.991 50.4993 50.1625 50.0094 50.0323 50.0768 50.0056 49.791 49.5296 49.4228 49.4979 49.5581 49.509 49.6066 50.0242 50.5583 50.6808 50.1597 49.0419 47.6827 46.4565 45.6113 45.0817 44.5506 43.7552 42.5939 41.0834 39.2177 37.1373 35.1934 33.6529 32.3769 30.9005 28.9288 26.3477 23.3727 20.4048 17.9773 16.3937 15.5905 15.2083 14.7642 13.912 12.5729 10.9402 9.29508 7.83677 6.51814 5.27552 4.14557 3.24747 2.45898 1.62252 0.891751 0.540048 0.569051 0.688663 0.706045 0.69461 0.849913 1.29376 1.90741 2.61948 3.38865 4.03408 4.10661 3.37598 2.15548 1.01241 0.276185 -0.0640164 -0.154047 -0.105903 0
0 2.34816 4.73314 7.18113 9.68192 12.1927 14.6353 16.9468 19.1407 21.3367 23.6494 25.9998 28.1612 30.0574 31.8521 33.9929 36.8628 40.7029 45.2768 49.7139 52.8545 54.002 53.6954 53.0359 53.0033 53.8867 55.48 57.3377 59.0149 60.3122 61.3072 62.1544 62.9643 63.7804 64.7186 65.7734 66.6936 67.1497 67.0727 66.5652 65.8223 64.9086 63.9185 62.904 61.9269 60.9477 59.8976 58.762 57.6488 56.6641 55.8411 55.1111 54.3496 53.5397 52.7718 52.1695 51.7362 51.4693 51.3459 51.3033 51.185 50.9375 50.6381 50.418 50.2981 50.2206 50.1112 50.0171 50.0555 50.3307 50.7564 50.9782 50.6642 49.7538 48.5732 47.486 46.7108 46.2611 45.9418 45.394 44.3356 42.7134 40.7095 38.5564 36.5332 34.8358 33.4437 31.9979 30.0717 27.4174 24.2614 21.1766 18.7673 17.3176 16.6143 16.2333 15.6984 14.7428 13.381 11.8094 10.248 8.82692 7.55549 6.34705 5.1098 3.88949 2.74401 1.75623 1.0062 0.623989 0.557737 0.623084 0.621241 0.57307 0.609466 0.857683 1.29308 1.89131 2.60089 3.17413 3.21795 2.50296 1.32407 0.186087 -0.562852 -0.862159 -0.812064 -0.484863 0
0 2.41431 4.79922 7.17576 9.55143 11.9305 14.2405 16.4674 18.6415 20.8503 23.1543 25.5027 27.7064 29.7034 31.5761 33.7109 36.3335 39.7704 43.8976 48.0205 51.0009 52.1786 52.0048 51.4729 51.4895 52.3697 53.9596 55.7588 57.3061 58.4111 59.3372 60.2799 61.1748 61.9097 62.6889 63.6635 64.5576 64.9589 64.8214 64.3307 63.6975 62.9597 62.2235 61.4733 60.7332 59.9175 59.0662 58.2171 57.4169 56.6743 56.0339 55.4854 54.9378 54.3309 53.7153 53.2301 52.8983 52.7165 52.5981 52.4645 52.1584 51.7187 51.3446 51.2189 51.1399 50.9728 50.7543 50.6725 50.6956 50.8195 51.1073 51.3596 51.2086 50.5008 49.5638 48.7224 48.1253 47.7773 47.582 47.1719 46.1797 44.544 42.5194 40.3906 38.2937 36.3969 34.7842 33.2758 31.4119 28.8449 25.789 22.8251 20.5041 19.011 18.1434 17.5187 16.7551 15.6463 14.2716 12.775 11.2835 9.85486 8.57685 7.39632 6.10109 4.65932 3.27728 2.23069 1.50089 1.01689 0.722011 0.623849 0.542138 0.432936 0.368919 0.502815 0.84029 1.33741 1.91534 2.36627 2.3665 1.74766 0.754506 -0.213148 -0.904927 -1.2657 -1.2439 -0.779554 0
0 2.36686 4.71399 7.03464 9.3418 11.6321 13.8608 16.0113 18.1268 20.2908 22.5588 24.8857 27.1025 29.1425 31.1042 33.2135 35.5648 38.3713 41.6969 45.1175 47.7778 49.1138 49.4229 49.4236 49.7838 50.772 52.2896 53.9779 55.4174 56.4793 57.4469 58.505 59.4467 60.0574 60.6277 61.4231 62.2245 62.5984 62.5007 62.0995 61.5968 61.0609 60.564 60.0875 59.5881 59.012 58.4135 57.852 57.3212 56.7775 56.2662 55.8463 55.4485 54.9942 54.528 54.1728 53.9504 53.82 53.7173 53.5401 53.1372 52.5894 52.1959 52.1197 52.092 51.8991 51.6746 51.623 51.6437 51.6675 51.8109 52.0048 51.9163 51.3879 50.7058 50.1503 49.791 49.5757 49.4356 49.0697 48.1545 46.5843 44.6179 42.5049 40.3632 38.3001 36.4789 34.8499 33.0071 30.6248 27.8441 25.1492 22.9124 21.2435 20.0102 18.9907 17.9242 16.6832 15.3245 13.9177 12.4865 11.0499 9.74135 8.56001 7.2826 5.80425 4.37558 3.30664 2.50269 1.78839 1.16088 0.771989 0.533491 0.334021 0.193094 0.26351 0.538762 0.920734 1.31783 1.59808 1.57095 1.11058 0.408526 -0.261077 -0.804346 -1.18256 -1.24948 -0.815645 0
0 2.30833 4.59441 6.83757 9.02168 11.2031 13.3698 15.5003 17.6041 19.7458 21.9969 24.3137 26.5224 28.6036 30.6052 32.6884 34.7586 36.9808 39.4572 42.0604 44.2604 45.6876 46.5075 47.1513 48.0015 49.1786 50.623 52.1739 53.5969 54.7819 55.9104 57.0501 58.0072 58.5577 58.9977 59.586 60.1966 60.4948 60.4376 60.1518 59.8393 59.5225 59.2837 59.0239 58.7403 58.3788 58.0009 57.6552 57.3202 56.9341 56.5223 56.1477 55.8321 55.503 55.2115 55.005 54.8579 54.7393 54.618 54.4414 54.0816 53.6342 53.3274 53.2831 53.2595 53.1 52.8844 52.7834 52.7271 52.6777 52.7278 52.8405 52.799 52.4912 52.1098 51.8225 51.6534 51.5013 51.3297 50.9253 50.0737 48.6286 46.7674 44.7254 42.5729 40.4306 38.4238 36.6186 34.7328 32.5394 30.0827 27.6691 25.4864 23.5991 21.9672 20.5259 19.1875 17.8461 16.5187 15.128 13.7237 12.3174 11.081 9.9627 8.77371 7.40434 6.02368 4.89209 3.88051 2.89132 1.91864 1.21062 0.747952 0.47547 0.32253 0.356935 0.556088 0.786068 0.973794 1.06469 1.0055 0.722072 0.329633 -0.0492673 -0.413639 -0.732053 -0.85832 -0.585173 0
0 2.33135 4.57698 6.66792 8.63344 10.6034 12.688 14.859 17.0218 19.2008 21.4773 23.8114 26.0221 28.0572 30.0346 32.0209 33.9167 35.729 37.6183 39.5862 41.3616 42.717 43.8065 44.9288 46.2226 47.6102 49.0201 50.4787 51.957 53.3549 54.6689 55.8697 56.8205 57.4111 57.8732 58.4186 58.9709 59.2443 59.2206 59.0547 58.9477 58.9172 58.8921 58.7628 58.5367 58.2393 57.9178 57.601 57.3124 57.0076 56.6627 56.2973 55.9568 55.6826 55.5333 55.4937 55.4568 55.3312 55.1454 54.952 54.7502 54.5741 54.4966 54.529 54.5439 54.4135 54.1374 53.8207 53.5746 53.476 53.525 53.6471 53.7264 53.7328 53.7171 53.7053 53.6659 53.4969 53.1731 52.611 51.7155 50.3825 48.716 46.8129 44.732 42.5196 40.3418 38.3213 36.3436 34.2583 32.0565 29.8575 27.7004 25.6104 23.6487 21.9314 20.4773 19.1745 17.8397 16.3472 14.8117 13.4605 12.4336 11.5629 10.5529 9.28718 7.91315 6.59738 5.32549 4.07218 2.87316 1.91272 1.26941 0.972129 0.902185 0.976367 1.09763 1.16757 1.14159 1.03254 0.891268 0.716333 0.52776 0.312093 0.0296499 -0.274827 -0.448918 -0.338403 0
0 2.43034 4.65361 6.58058 8.26555 9.96778 11.9174 14.1159 16.3696 18.6316 21.004 23.4454 25.6809 27.6161 29.4163 31.2586 33.0094 34.6117 36.2289 37.9189 39.4632 40.6377 41.7215 43.0194 44.5631 46.065 47.4493 48.8573 50.4054 51.9752 53.4462 54.7097 55.7396 56.4941 57.2325 58.0814 58.8916 59.3057 59.3253 59.1999 59.25 59.4337 59.5834 59.4528 59.1234 58.6848 58.2036 57.7048 57.2808 56.9148 56.5458 56.1055 55.6942 55.4058 55.3736 55.5252 55.6271 55.5075 55.205 54.9688 54.9209 55.0642 55.3146 55.5497 55.6712 55.5104 55.0058 54.3088 53.7885 53.6864 53.8795 54.1783 54.518 54.9135 55.3304 55.6342 55.7352 55.463 54.8552 53.945 52.8946 51.6886 50.3365 48.7256 46.763 44.4612 42.0647 39.8249 37.7262 35.6648 33.5773 31.5204 29.3561 27.1001 24.9102 23.0722 21.6706 20.4593 19.0722 17.3255 15.5981 14.3299 13.7104 13.301 12.5987 11.3987 9.88013 8.29965 6.72703 5.26493 3.9266 2.85667 2.14815 1.90895 2.0036 2.1982 2.31862 2.24866 2.02808 1.68204 1.39689 1.17969 1.0323 0.810132 0.453908 0.0370854 -0.242342 -0.23198 0
0 2.43407 4.62088 6.4346 7.96532 9.49185 11.2956 13.4451 15.7514 18.1366 20.67 23.2625 25.5527 27.3465 28.909 30.5153 32.1364 33.6739 35.2769 36.9706 38.4548 39.4974 40.4303 41.6513 43.1504 44.609 45.9406 47.308 48.858 50.493 52.0585 53.4596 54.6998 55.8322 57.073 58.4642 59.6974 60.3207 60.3764 60.245 60.3209 60.5971 60.797 60.6291 60.1351 59.4534 58.6891 57.9016 57.2391 56.7138 56.2091 55.6746 55.2075 54.9645 55.0316 55.3287 55.5401 55.4049 55.0034 54.6936 54.732 55.1401 55.7436 56.2747 56.4974 56.1752 55.2818 54.14 53.3746 53.336 53.7901 54.4189 55.1248 55.9539 56.8298 57.5028 57.7474 57.3134 56.2851 54.9324 53.6676 52.6101 51.6551 50.4451 48.6981 46.3461 43.7384 41.2557 38.9962 36.8625 34.8112 32.8108 30.6678 28.3344 26.0339 24.1308 22.7067 21.4512 19.8805 17.9316 16.1413 15.1608 15.0466 15.1879 14.8299 13.6343 11.8708 9.93261 8.08327 6.43999 5.03094 3.94116 3.27185 3.16545 3.46233 3.83222 3.9986 3.83285 3.40079 2.8294 2.33484 1.98479 1.73175 1.4011 0.909335 0.342843 -0.061893 -0.150321 0
0 2.24374 4.31031 6.11006 7.6873 9.23081 10.9593 12.983 15.2728 17.7782 20.4869 23.1796 25.4682 27.1592 28.5107 29.8895 31.3721 32.9371 34.6462 36.4065 37.9026 38.9091 39.75 40.7561 42.0091 43.2827 44.5419 45.868 47.361 48.9619 50.5601 52.1034 53.6621 55.3025 57.1552 59.0955 60.711 61.5284 61.654 61.5204 61.5449 61.7254 61.8657 61.6703 61.1088 60.2312 59.1815 58.0868 57.1692 56.438 55.7891 55.1742 54.7274 54.5913 54.7785 55.1765 55.4407 55.3326 54.8942 54.5384 54.6038 55.1796 56.0976 56.9085 57.2262 56.6927 55.4137 53.8851 52.9223 52.9277 53.6235 54.5827 55.6516 56.8361 58.0943 59.0409 59.3768 58.7036 57.2772 55.5369 54.1329 53.2192 52.63 51.8533 50.4425 48.221 45.5164 42.805 40.3308 38.1034 36.0358 34.048 31.9255 29.6255 27.3132 25.2877 23.6203 22.0594 20.2466 18.2809 16.8039 16.3499 16.8228 17.4154 17.2891 16.0425 14.0032 11.7192 9.57331 7.75449 6.25165 5.13489 4.50563 4.51851 4.98596 5.49412 5.68846 5.41183 4.80998 4.06478 3.41911 2.9124 2.50136 2.0425 1.46926 0.832094 0.320802 0.0577576 0
0 1.90442 3.79152 5.61683 7.37071 9.08426 10.8231 12.7156 14.9284 17.5184 20.3123 22.934 25.0564 26.6 27.8477 29.1179 30.5679 32.2102 34.0011 35.7637 37.2433 38.3298 39.1986 40.0483 40.9974 42.0649 43.2432 44.5465 45.9833 47.5324 49.1189 50.762 52.5395 54.5606 56.8614 59.2209 61.1601 62.2357 62.5793 62.585 62.5976 62.6258 62.5972 62.3434 61.77 60.8103 59.5645 58.2365 57.0993 56.2379 55.5263 54.9038 54.4455 54.3288 54.5742 55.0461 55.4198 55.441 55.1274 54.8291 54.9344 55.6193 56.7211 57.7506 58.1871 57.627 56.1755 54.4126 53.2289 53.1343 53.8745 54.9859 56.2402 57.6262 59.0331 60.0459 60.2904 59.4358 57.765 55.8618 54.3937 53.5562 53.1527 52.693 51.6718 49.7852 47.2008 44.3693 41.7425 39.4578 37.3952 35.3638 33.2239 30.9732 28.6948 26.5271 24.5382 22.6449 20.7217 19.0567 18.1713 18.3943 19.3449 20.1479 20.0068 18.6029 16.3321 13.7516 11.3305 9.2749 7.59768 6.37605 5.71059 5.76165 6.2944 6.84286 6.98107 6.59512 5.88722 5.11222 4.42528 3.82698 3.26703 2.69914 2.09057 1.448 0.829678 0.343765 0
0 1.58917 3.29955 5.1143 7.00756 8.86615 10.6472 12.4186 14.5433 17.1169 19.8565 22.2345 24.0622 25.4479 26.6894 28.0399 29.5778 31.3033 33.0918 34.7656 36.1975 37.3861 38.3737 39.1881 39.9567 40.8853 42.0197 43.3321 44.7436 46.2514 47.802 49.4403 51.2499 53.3584 55.838 58.4773 60.7662 62.2714 63.0472 63.3949 63.5156 63.4132 63.1448 62.7049 62.0638 61.0745 59.7573 58.302 57.0649 56.1876 55.5481 54.9747 54.4719 54.2499 54.4221 54.9348 55.468 55.7464 55.7209 55.6341 55.8534 56.5843 57.741 58.8439 59.4393 59.0819 57.7964 56.0211 54.6609 54.3015 54.8016 55.7159 56.8527 58.1461 59.3981 60.1202 60.1232 59.173 57.5925 55.8017 54.3918 53.5288 53.0934 52.7156 51.981 50.5415 48.3263 45.6659 43.0671 40.8275 38.7846 36.6764 34.4548 32.2144 29.9621 27.7376 25.5853 23.6314 21.9327 20.8205 20.6314 21.3983 22.5808 23.2986 22.958 21.3664 18.9313 16.1643 13.4808 11.1181 9.12507 7.65988 6.85056 6.80389 7.24926 7.68483 7.70767 7.24479 6.56338 5.9095 5.31117 4.70731 4.03388 3.35791 2.68678 1.99447 1.2651 0.578958 0
0 1.42222 3.00028 4.75458 6.63268 8.51255 10.2646 11.954 13.9451 16.3807 18.9046 21.0061 22.5979 23.9155 25.2567 26.765 28.4373 30.1853 31.8806 33.4094 34.7624 36.0084 37.1136 37.9999 38.773 39.691 40.8401 42.1681 43.5728 45.049 46.5684 48.1686 49.9085 51.9612 54.4378 57.2067 59.7982 61.778 63.1358 63.9787 64.3557 64.1866 63.6407 62.9043 62.0769 61.0318 59.7052 58.2531 57.0387 56.2604 55.7514 55.2887 54.8045 54.4883 54.5356 54.986 55.6118 56.1456 56.4744 56.7228 57.14 57.9293 59.0513 60.1278 60.7801 60.6557 59.6763 58.1287 56.7721 56.1636 56.2194 56.6562 57.3764 58.3096 59.1244 59.4116 59.0996 58.2016 56.9119 55.4641 54.1971 53.2747 52.6709 52.1731 51.5095 50.4011 48.6865 46.4479 44.1213 42.0073 39.9934 37.8342 35.5374 33.2748 31.0492 28.8582 26.8068 25.1491 23.9866 23.5373 23.8835 24.8957 26.0108 26.5072 25.9525 24.2183 21.677 18.7761 15.9201 13.2637 10.8954 9.06891 7.97794 7.70835 7.92704 8.16774 8.07142 7.62232 7.06825 6.58339 6.11683 5.52025 4.77821 3.98913 3.2111 2.4207 1.58591 0.764256 0
0 1.38611 2.89153 4.52072 6.26547 8.00813 9.67769 11.2964 13.1451 15.3128 17.5262 19.4216 20.969 22.3828 23.8771 25.5247 27.2342 28.8952 30.4223 31.8272 33.1328 34.41 35.5718 36.5923 37.5111 38.5763 39.7951 41.1391 42.5156 43.9389 45.4025 46.9288 48.6099 50.6025 53.0087 55.7319 58.4213 60.7827 62.6937 64.0935 64.7786 64.5864 63.796 62.7513 61.7058 60.5563 59.263 57.9372 56.8948 56.2828 55.9519 55.6759 55.3661 55.1319 55.1033 55.4032 55.9384 56.5737 57.2107 57.8452 58.5839 59.4987 60.5781 61.5003 62.0359 61.9216 61.2004 60.0193 58.8913 58.1384 57.7453 57.6081 57.7687 58.1286 58.4038 58.276 57.8016 57.0269 56.106 55.0406 53.9867 53.0249 52.2129 51.4619 50.6813 49.7301 48.4436 46.7218 44.7433 42.7469 40.747 38.6014 36.3434 34.1376 31.9697 29.93 28.1532 26.9902 26.4368 26.5056 27.0925 28.0427 28.9346 29.2212 28.5392 26.7347 24.131 21.2208 18.3182 15.5204 12.8465 10.6204 9.15612 8.54483 8.46611 8.44499 8.25767 7.88881 7.53409 7.23463 6.89034 6.34732 5.59199 4.73004 3.83204 2.90785 1.94959 0.971234 0
0 1.38839 2.84201 4.3812 5.97326 7.55155 9.07647 10.6313 12.3493 14.2548 16.1785 17.934 19.4982 21.0078 22.6101 24.3228 25.9952 27.4849 28.8408 30.2058 31.5935 32.9129 34.0819 35.1733 36.3197 37.6212 38.9893 40.3317 41.6459 42.9915 44.3607 45.7744 47.3452 49.2307 51.4484 53.9449 56.5656 59.1456 61.5366 63.3977 64.3536 64.1655 63.2303 62.0081 60.8028 59.5921 58.3949 57.3392 56.6027 56.2501 56.1362 56.0996 56.0274 55.9418 55.9135 56.0686 56.4403 57.0493 57.8837 58.9492 60.1477 61.3323 62.3806 63.0658 63.2939 63.0105 62.3716 61.5039 60.6132 59.7959 59.0907 58.529 58.1771 57.9988 57.8125 57.4616 56.9736 56.3795 55.6977 54.8749 53.9557 52.9679 51.931 50.8677 49.8873 48.9982 48.0268 46.6956 44.9819 43.0315 41.0076 38.9166 36.7881 34.7165 32.7109 30.8801 29.4624 28.7653 28.6488 28.9436 29.5222 30.3085 31.0018 31.1117 30.2629 28.326 25.723 22.9392 20.2159 17.4814 14.7009 12.2032 10.404 9.48252 9.06166 8.72266 8.34426 8.0458 7.88911 7.78499 7.62505 7.26298 6.65429 5.80652 4.81515 3.72179 2.55511 1.30423 0
0 1.38717 2.82615 4.35346 5.87874 7.30688 8.66355 10.1199 11.7427 13.5045 15.2382 16.8524 18.3341 19.79 21.398 23.1222 24.7573 26.1134 27.3946 28.8607 30.416 31.8064 32.9071 33.9959 35.2781 36.8304 38.3647 39.7214 40.9433 42.1843 43.4329 44.6568 45.991 47.5684 49.4313 51.5966 54.0773 56.8142 59.5291 61.6871 62.7828 62.616 61.6716 60.4415 59.2579 58.1326 57.1905 56.5492 56.2538 56.2502 56.4136 56.6207 56.7536 56.7874 56.7763 56.8909 57.1648 57.7438 58.7576 60.2535 61.9504 63.4026 64.3895 64.7487 64.623 64.0991 63.4618 62.7403 61.9632 61.1031 60.2191 59.4038 58.7406 58.2129 57.7767 57.337 56.9103 56.4421 55.8559 55.0587 54.0988 52.9947 51.6747 50.2539 49.0598 48.2825 47.6119 46.575 44.9928 42.9975 40.9133 38.8535 36.8965 35.0598 33.2931 31.7218 30.5854 30.1653 30.1873 30.4217 30.8523 31.4986 32.0567 31.9592 30.8469 28.7747 26.2644 23.7986 21.3992 18.8824 16.1521 13.5638 11.5919 10.42 9.6455 8.85041 8.16124 7.84643 7.89558 8.04771 8.20236 8.2317 7.98875 7.32781 6.30207 4.99324 3.48087 1.79314 0
0 1.41656 2.90988 4.49015 6.01469 7.33191 8.50313 9.79373 11.3144 12.9836 14.6201 16.107 17.4543 18.7995 20.3435 22.0571 23.6647 25.0072 26.3623 27.9696 29.6359 30.9933 31.9997 32.9867 34.2841 35.9416 37.618 39.0246 40.2043 41.3519 42.486 43.5272 44.5431 45.7041 47.1 48.8745 51.1622 53.9437 56.8523 59.1893 60.4066 60.3296 59.4729 58.3726 57.3659 56.5293 55.9752 55.8137 55.9724 56.3431 56.802 57.2425 57.5294 57.6293 57.6601 57.8108 58.1463 58.8516 60.1396 62.0026 63.9707 65.4742 66.2748 66.3535 65.9588 65.2982 64.6039 63.8916 63.119 62.2172 61.2388 60.2961 59.4775 58.8152 58.2755 57.8113 57.3827 56.915 56.2776 55.3597 54.2107 52.8448 51.1762 49.3955 48.0124 47.3563 47.0329 46.3391 44.937 42.9544 40.7778 38.6936 36.8598 35.2575 33.755 32.4073 31.4631 31.1097 31.068 31.1154 31.3343 31.811 32.2098 31.9113 30.6347 28.5607 26.2974 24.1827 22.1129 19.7963 17.1908 14.6391 12.5882 11.1805 9.97339 8.70132 7.66817 7.3371 7.57689 8.03518 8.54586 9.03563 9.28536 8.97748 8.04148 6.50599 4.55994 2.33551 0
0 1.57537 3.17785 4.80276 6.27982 7.50432 8.52305 9.64532 11.0134 12.5701 14.0992 15.4742 16.7416 18.016 19.5352 21.1741 22.7701 24.1835 25.689 27.385 29.0088 30.2663 31.1477 32.0371 33.2431 34.8614 36.5695 38.0504 39.2351 40.3056 41.328 42.2442 43.0703 43.9187 44.928 46.2947 48.2625 50.9024 53.8242 56.3154 57.7209 57.8419 57.1467 56.2254 55.4936 55.0657 54.989 55.2596 55.76 56.4061 57.1101 57.7856 58.2799 58.5338 58.6608 58.9038 59.4061 60.4269 62.0401 64.0662 65.9469 67.2023 67.7538 67.655 67.1943 66.5012 65.7815 65.0303 64.2061 63.2459 62.1796 61.1594 60.2934 59.6062 59.0459 58.5188 57.9766 57.3564 56.5654 55.5106 54.153 52.4972 50.4925 48.4563 46.9262 46.3262 46.2452 45.9183 44.8007 42.9347 40.75 38.647 36.8932 35.4662 34.1777 33.0479 32.2023 31.7921 31.5683 31.3933 31.3448 31.5025 31.6323 31.2364 30.0881 28.3194 26.4098 24.557 22.6434 20.4404 17.9687 15.4931 13.3452 11.5961 9.94321 8.32758 7.15618 6.88812 7.30734 7.99809 8.72636 9.48191 10.079 10.1653 9.42217 7.76989 5.44087 2.76992 0
0 1.85625 3.59912 5.15394 6.49927 7.62797 8.59694 9.59647 10.8154 12.2446 13.6741 14.9461 16.1356 17.3982 18.8546 20.4131 21.9275 23.3683 24.9168 26.5911 28.1387 29.2949 30.1266 30.9766 32.1537 33.7159 35.3901 36.8542 37.9983 38.9478 39.8695 40.7828 41.656 42.4757 43.2734 44.286 45.8293 48.1222 50.8988 53.4651 55.1082 55.5139 55.066 54.3729 53.9315 53.9128 54.2603 54.8466 55.5168 56.2621 57.1155 58.0383 58.8528 59.3986 59.6999 60.0447 60.7735 62.1346 63.9955 65.9519 67.5525 68.539 68.9388 68.8265 68.3973 67.7563 67.0314 66.2011 65.2365 64.1284 62.9685 61.9263 61.1105 60.4904 59.9058 59.2407 58.4668 57.5942 56.6274 55.468 54.0143 52.185 50.0349 47.9083 46.3085 45.6142 45.5651 45.4473 44.5997 42.9212 40.8372 38.8333 37.1509 35.8057 34.6654 33.705 32.9441 32.4384 32.0369 31.6455 31.2836 31.0235 30.8025 30.3826 29.5769 28.306 26.7489 24.9989 23.092 20.9523 18.646 16.2836 14.013 11.9084 9.92123 8.22332 7.15823 7.02565 7.51139 8.20465 8.85341 9.50393 10.123 10.3961 9.86677 8.23922 5.79155 2.93848 0
0 2.12896 3.94506 5.32615 6.45791 7.51804 8.52693 9.50969 10.6655 12.0515 13.4174 14.5536 15.6067 16.7521 18.1245 19.5575 20.9657 22.2994 23.7688 25.3943 26.9077 28.0469 28.879 29.7743 31.0281 32.6206 34.2561 35.5966 36.5754 37.3665 38.2154 39.2249 40.3115 41.3046 42.1197 42.9417 44.1285 46.0114 48.4577 50.9168 52.666 53.3788 53.2695 52.9101 52.7865 53.0905 53.7267 54.4969 55.2128 55.93 56.8175 57.9496 59.1301 60.056 60.6129 61.1168 62.0147 63.5774 65.4489 67.1967 68.5444 69.4651 69.9352 69.9213 69.5735 69.004 68.2829 67.3285 66.1475 64.8443 63.5847 62.5793 61.8834 61.3513 60.7244 59.8591 58.8335 57.7392 56.6453 55.4421 54.0064 52.2269 50.1768 48.1737 46.5819 45.724 45.4613 45.2779 44.4898 42.9376 41.0325 39.2688 37.7618 36.5045 35.4101 34.5373 33.7864 33.1941 32.607 31.9869 31.2931 30.6288 30.0809 29.6261 29.1232 28.2846 27.0039 25.2778 23.3414 21.2833 19.2042 17.0296 14.7752 12.5223 10.469 8.92707 8.08791 8.03546 8.35475 8.74164 8.95761 9.18417 9.46821 9.6447 9.17825 7.72768 5.45207 2.78576 0
0 2.16312 3.90093 5.0936 6.06357 7.09526 8.17381 9.20876 10.3838 11.769 13.105 14.163 15.0852 16.1216 17.359 18.6839 19.9442 21.1389 22.4716 24.0074 25.4884 26.6256 27.5103 28.4922 29.84 31.4714 33.0438 34.2434 35.0779 35.7803 36.6394 37.7619 39.0269 40.2017 41.1374 41.9539 42.9639 44.494 46.5183 48.6465 50.3426 51.2864 51.6042 51.6935 51.9455 52.5161 53.3134 54.1723 54.9332 55.6494 56.5531 57.8034 59.214 60.4274 61.2524 61.9406 62.9527 64.492 66.2086 67.7221 68.9647 69.9806 70.6523 70.8322 70.6353 70.1496 69.3912 68.2967 66.9451 65.5113 64.2225 63.2565 62.6096 62.0593 61.3144 60.2716 59.0845 57.8924 56.7441 55.5401 54.19 52.5918 50.7992 49.034 47.5492 46.5372 45.9684 45.509 44.6338 43.1636 41.4588 39.9556 38.6854 37.5221 36.4261 35.4958 34.695 33.9798 33.2314 32.3866 31.422 30.4614 29.6657 29.1082 28.658 28.0001 26.8823 25.2483 23.3718 21.4827 19.6628 17.7789 15.7491 13.6639 11.7867 10.4566 9.75143 9.56138 9.51001 9.35734 9.01973 8.68598 8.50321 8.34372 7.78014 6.48516 4.58478 2.3471 0
0 1.78329 3.26229 4.35012 5.34923 6.4317 7.58776 8.6691 9.82406 11.1331 12.4161 13.5033 14.4677 15.4623 16.5795 17.7466 18.9045 20.0165 21.2494 22.6543 24.0719 25.2606 26.2598 27.2752 28.5736 30.0542 31.5091 32.6539 33.5179 34.3017 35.2502 36.439 37.7351 38.9685 40.0203 40.9636 41.9963 43.3367 44.989 46.7368 48.2363 49.3295 50.0289 50.5982 51.2247 52.0187 52.9158 53.862 54.7559 55.5926 56.5359 57.7305 59.1123 60.3953 61.3985 62.2861 63.3415 64.7372 66.201 67.5757 68.8148 69.9663 70.829 71.2837 71.3127 70.9185 70.1272 68.9926 67.6638 66.2895 65.0494 64.0371 63.2427 62.4617 61.5088 60.3311 59.1204 57.9382 56.8122 55.6564 54.4508 53.0803 51.5707 50.0684 48.7378 47.6679 46.8151 46.029 44.9951 43.5842 42.0494 40.7138 39.5821 38.5042 37.3975 36.4035 35.496 34.6523 33.7278 32.709 31.5667 30.4429 29.4686 28.7126 28.0608 27.298 26.2026 24.7292 23.0629 21.4121 19.8722 18.3352 16.7216 15.0363 13.4671 12.2783 11.4939 11.0019 10.4692 9.81107 8.97699 8.1777 7.53837 6.99524 6.24705 5.09216 3.56615 1.83392 0
0 1.10384 2.19288 3.28222 4.47582 5.77809 7.01378 8.03063 8.97052 10.0515 11.296 12.57 13.7693 14.8336 15.7903 16.7415 17.7563 18.8137 19.9473 21.2397 22.6861 24.0861 25.2896 26.3016 27.3233 28.4738 29.7292 30.8922 31.8778 32.7989 33.8467 35.0629 36.3344 37.5574 38.6986 39.8085 40.9743 42.2977 43.7574 45.2174 46.5376 47.6798 48.6793 49.6082 50.5176 51.4507 52.4371 53.5118 54.6223 55.6587 56.6151 57.6135 58.7279 59.8565 60.8918 61.8835 62.9416 64.1293 65.4017 66.7582 68.1274 69.3978 70.4483 71.1675 71.4479 71.1676 70.4265 69.4008 68.2923 67.1534 66.0163 64.8807 63.7758 62.6327 61.3859 60.0717 58.8389 57.7214 56.6813 55.6777 54.6661 53.5171 52.2054 50.8792 49.6761 48.5939 47.5871 46.5712 45.3881 43.9505 42.439 41.1024 39.9695 38.9094 37.8588 36.8697 35.9393 34.9977 33.9529 32.7872 31.5441 30.3283 29.2143 28.2267 27.2728 26.2359 25.0343 23.6906 22.2787 20.8905 19.612 18.4613 17.3146 16.0637 14.7515 13.5754 12.6134 11.7788 10.8975 9.88493 8.75512 7.64092 6.67889 5.85909 4.99702 3.93824 2.70473 1.36915 0
0 0.40969 1.06843 2.08547 3.46452 5.01299 6.33909 7.19938 7.83702 8.7208 10.0255 11.5915 13.0639 14.1474 14.8811 15.5048 16.3155 17.2657 18.3479 19.6402 21.256 22.9618 24.4108 25.3679 26.0825 26.8768 27.9634 29.1391 30.2094 31.1985 32.2708 33.5206 34.7988 36.0497 37.2618 38.5189 39.8669 41.3261 42.8032 44.1966 45.4524 46.6491 47.8061 48.914 49.9247 50.8953 51.9415 53.1415 54.4359 55.5716 56.4422 57.1381 57.8973 58.7584 59.7038 60.7017 61.6991 62.7317 63.9108 65.3901 66.965 68.4048 69.5858 70.4934 70.9728 70.861 70.2938 69.4873 68.6941 67.8521 66.8715 65.6113 64.1881 62.6532 61.0663 59.5129 58.1678 57.1097 56.2762 55.5587 54.8176 53.8381 52.6214 51.345 50.1822 49.1075 48.0861 47.0057 45.7105 44.0777 42.3731 40.8514 39.6193 38.545 37.5944 36.7332 35.8869 34.9462 33.8054 32.5149 31.1657 29.8948 28.6944 27.5458 26.3285 24.9905 23.5841 22.2541 20.9881 19.805 18.788 18.0252 17.2989 16.3545 15.1594 13.9603 12.8598 11.8546 10.7825 9.59883 8.30049 7.00689 5.9018 5.00083 4.16953 3.2093 2.13016 1.0493 0
0 -0.0442792 0.219315 0.98608 2.27894 3.85928 5.16465 5.92252 6.45937 7.39315 8.94695 10.8139 12.4561 13.4486 13.8706 14.145 14.6665 15.5011 16.599 17.9937 19.7387 21.625 23.2025 24.1743 24.7683 25.4252 26.3931 27.5382 28.6107 29.5896 30.6355 31.8715 33.2001 34.5155 35.7972 37.1605 38.6686 40.304 41.9211 43.409 44.7721 46.064 47.3054 48.4554 49.4964 50.4892 51.5917 52.864 54.1721 55.2222 55.8942 56.3069 56.7468 57.3628 58.1625 59.0883 60.037 61.0295 62.2587 63.8729 65.6336 67.1877 68.4549 69.4544 70.107 70.2175 69.8976 69.36 68.8367 68.2417 67.402 66.1201 64.4781 62.612 60.6477 58.7635 57.2278 56.2536 55.747 55.4379 54.963 54.0888 52.8749 51.5639 50.3757 49.3235 48.3938 47.397 46.0413 44.1731 42.1234 40.2923 38.8526 37.7477 36.8979 36.1921 35.4563 34.5119 33.2852 31.8638 30.4411 29.1433 27.9501 26.745 25.373 23.7934 22.1658 20.721 19.4869 18.4732 17.763 17.3563 16.904 16.0737 14.8806 13.623 12.4801 11.4107 10.2843 9.0369 7.70022 6.40096 5.30906 4.47526 3.71331 2.81131 1.80296 0.846004 0
0 -0.24932 -0.293036 0.0841738 0.974207 2.21563 3.32724 4.10515 4.85576 6.11847 7.97437 10.0412 11.6797 12.47 12.603 12.5789 12.9262 13.7429 14.9409 16.4017 18.0855 19.8508 21.4001 22.4889 23.2602 24.0129 24.9663 26.049 27.093 28.0683 29.0634 30.2615 31.5812 32.9665 34.3257 35.8041 37.4609 39.274 41.0552 42.7186 44.2427 45.6434 46.9271 48.1083 49.2012 50.2785 51.4619 52.7303 53.882 54.6694 55.063 55.2344 55.462 55.8961 56.5655 57.3979 58.3326 59.4213 60.7989 62.524 64.3421 65.9421 67.2477 68.3047 69.0736 69.3774 69.327 69.0479 68.7381 68.2531 67.513 66.3031 64.64 62.5793 60.3085 58.1248 56.4386 55.5908 55.4327 55.4698 55.1836 54.3387 53.097 51.7552 50.5686 49.5804 48.7926 47.8901 46.5117 44.4469 42.0853 39.9006 38.2072 37.0096 36.2085 35.5817 34.8825 33.9029 32.576 31.0692 29.6045 28.3261 27.1572 25.9561 24.517 22.8062 21.0185 19.4345 18.2188 17.4378 17.0583 16.887 16.502 15.6442 14.3891 13.0748 11.8517 10.7323 9.55741 8.33613 7.08784 5.91421 4.94498 4.18024 3.49032 2.65507 1.70192 0.79234 0
0 -0.353733 -0.606209 -0.592642 -0.17426 0.591643 1.38912 2.14607 3.09905 4.58982 6.60053 8.69968 10.272 10.9239 10.8875 10.7832 11.1384 12.0811 13.401 14.8568 16.3333 17.8285 19.2698 20.5389 21.62 22.5844 23.559 24.5704 25.541 26.4426 27.379 28.5289 29.8778 31.3421 32.8425 34.4954 36.3537 38.3553 40.3172 42.1169 43.7208 45.1459 46.4584 47.7113 48.9275 50.1439 51.4159 52.6458 53.5805 54.0459 54.163 54.1601 54.2401 54.5277 55.0412 55.7623 56.6699 57.8704 59.4144 61.2255 63.0476 64.6682 66.0539 67.1904 68.0458 68.5157 68.6984 68.6637 68.4663 68.0211 67.3396 66.2928 64.8068 62.8048 60.4346 58.0936 56.3581 55.627 55.6658 55.8319 55.5341 54.6209 53.3506 52.0651 50.9879 50.1404 49.4525 48.5855 47.1206 44.8986 42.3135 39.911 38.0245 36.7054 35.7939 35.0997 34.3643 33.3595 31.9963 30.4244 28.9044 27.5765 26.3959 25.1897 23.7623 22.0517 20.2179 18.6119 17.5313 17.0681 16.9742 16.8326 16.3125 15.3213 14.0087 12.5911 11.2183 9.93315 8.70747 7.56062 6.48795 5.50952 4.64491 3.93484 3.29202 2.55223 1.68236 0.800671 0
0 -0.469761 -0.865866 -1.08209 -0.97241 -0.589536 -0.108341 0.445514 1.28026 2.65471 4.49528 6.47268 7.9521 8.5859 8.60112 8.65545 9.22585 10.3866 11.8284 13.2525 14.5476 15.8341 17.2289 18.6452 19.9736 21.0861 22.0872 23.0391 23.9085 24.6812 25.5217 26.6905 28.1159 29.712 31.3936 33.3 35.4072 37.6505 39.7962 41.6944 43.2856 44.664 45.9644 47.296 48.6233 49.9543 51.2852 52.4905 53.2529 53.4651 53.3625 53.2362 53.2026 53.309 53.6037 54.1315 54.9262 56.1255 57.7633 59.6639 61.5589 63.2742 64.7831 66.0354 66.9939 67.5986 67.9558 68.0553 67.9512 67.5912 67.0523 66.2507 65.1058 63.4286 61.2872 59.0357 57.345 56.6111 56.5662 56.5357 55.9962 54.9223 53.6572 52.5478 51.6855 50.9999 50.3398 49.4062 47.7923 45.4208 42.7416 40.33 38.409 36.9331 35.7492 34.8228 33.9825 32.9932 31.6453 30.0136 28.3679 26.9206 25.6663 24.4579 23.0832 21.4754 19.7574 18.3021 17.4753 17.2908 17.3302 17.018 16.227 15.0635 13.7071 12.2146 10.6697 9.19476 7.85671 6.7525 5.81744 4.97951 4.21196 3.55805 3.00488 2.37665 1.60985 0.784857 0
0 -0.583085 -1.08389 -1.40865 -1.48857 -1.36645 -1.20408 -0.991258 -0.523341 0.463225 1.96182 3.6784 5.05381 5.76295 6.00953 6.36301 7.19918 8.544 10.0838 11.5253 12.793 14.0631 15.4947 17.0175 18.4386 19.5996 20.5961 21.5088 22.2967 22.96 23.7508 24.9342 26.4427 28.1679 30.0641 32.2054 34.5374 36.9645 39.2841 41.2888 42.9074 44.2574 45.5489 46.9049 48.2959 49.6765 51.0458 52.2319 52.9238 52.9973 52.7698 52.548 52.3955 52.2917 52.2957 52.5421 53.1399 54.2654 55.9043 57.8684 59.8541 61.6907 63.3423 64.7428 65.8643 66.6183 67.0468 67.2106 67.2131 67.052 66.7693 66.2878 65.5304 64.2994 62.568 60.6229 59.0404 58.1854 57.833 57.4106 56.545 55.336 54.1378 53.2287 52.5572 51.9491 51.2547 50.2157 48.5094 46.1041 43.4727 41.1606 39.254 37.5828 36.0469 34.7587 33.693 32.6323 31.2859 29.6171 27.875 26.316 24.9894 23.767 22.4626 21.019 19.5487 18.3614 17.7429 17.6608 17.6163 17.0796 16.0445 14.7515 13.3689 11.8455 10.2284 8.62048 7.17107 6.01354 5.11834 4.36965 3.69165 3.12509 2.63563 2.08684 1.41456 0.690711 0
0 -0.701769 -1.30355 -1.76573 -2.01337 -2.11825 -2.19897 -2.2541 -2.10295 -1.43857 -0.310166 1.08518 2.23449 3.00541 3.47357 4.10895 5.12369 6.57615 8.17434 9.6977 11.0721 12.4475 13.9653 15.5181 16.9385 18.0836 19.0812 20.0048 20.8302 21.57 22.3915 23.5312 24.9989 26.8106 28.9151 31.2499 33.7089 36.2182 38.6328 40.7338 42.4159 43.8045 45.1077 46.5033 47.9505 49.4063 50.8212 52.0304 52.729 52.7984 52.5252 52.1931 51.8899 51.5901 51.3183 51.2727 51.6605 52.6955 54.3308 56.291 58.3016 60.1722 61.884 63.3793 64.6249 65.4548 65.9205 66.1355 66.2983 66.3704 66.3714 66.2019 65.7942 64.924 63.6133 62.0438 60.6368 59.6327 58.9054 58.1367 57.1218 55.9685 54.9353 54.1597 53.524 52.8764 52.0474 50.9134 49.2085 46.9381 44.4587 42.1864 40.1722 38.2813 36.4331 34.7897 33.3822 32.0966 30.6673 29.0008 27.264 25.6745 24.3301 23.1071 21.8906 20.657 19.4851 18.5524 18.0135 17.7915 17.5319 16.8248 15.7249 14.4134 13.0493 11.5641 9.97746 8.35373 6.81022 5.51667 4.53498 3.7837 3.20306 2.71914 2.28147 1.75164 1.1447 0.537296 0
0 -0.875998 -1.69344 -2.36508 -2.8114 -3.02106 -3.16506 -3.30281 -3.29086 -2.8352 -1.9785 -0.950648 -0.0683082 0.625337 1.21452 1.97934 3.08461 4.57773 6.23907 7.87491 9.40264 10.9041 12.4508 13.9668 15.3179 16.4443 17.4497 18.437 19.4294 20.4026 21.344 22.3813 23.7435 25.6403 27.9541 30.4546 33.0126 35.5806 38.0148 40.0594 41.6602 42.9808 44.3222 45.8476 47.4999 49.1426 50.677 51.9378 52.7385 52.9457 52.7203 52.2633 51.7605 51.282 50.8403 50.5922 50.8298 51.8365 53.4688 55.4067 57.3272 59.0827 60.6909 62.1401 63.3643 64.1887 64.6951 65.0364 65.3476 65.5794 65.7628 65.8318 65.6706 65.0586 64.0187 62.7323 61.457 60.3166 59.3418 58.4809 57.6325 56.767 55.9366 55.2116 54.525 53.7227 52.7172 51.409 49.7125 47.6004 45.2518 42.8857 40.6296 38.515 36.5187 34.6601 32.9533 31.3849 29.8161 28.1358 26.4209 24.8731 23.5786 22.4434 21.3547 20.3145 19.3805 18.6305 18.1155 17.7479 17.2773 16.4868 15.4309 14.2343 12.9509 11.5225 9.95188 8.29844 6.69489 5.29797 4.19171 3.39453 2.85664 2.46909 2.05251 1.48467 0.863863 0.354583 0
0 -1.24319 -2.43975 -3.44505 -4.04151 -4.18103 -4.13236 -4.11508 -4.06966 -3.67976 -3.04952 -2.325 -1.77062 -1.24634 -0.736179 0.0143583 1.11754 2.64484 4.38654 6.13935 7.77609 9.32323 10.8155 12.2258 13.4836 14.5885 15.6156 16.6968 17.8852 19.138 20.2187 21.1972 22.5098 24.5535 27.1457 29.8364 32.5288 35.1446 37.5115 39.3095 40.6171 41.7444 43.0982 44.8524 46.8495 48.8114 50.5171 51.8809 52.843 53.3001 53.2145 52.6754 52.0039 51.4261 50.9286 50.6065 50.7804 51.7815 53.4407 55.3546 57.1467 58.6454 59.9524 61.1403 62.1954 62.9355 63.5065 63.9984 64.4565 64.7487 64.9821 65.1119 65.0734 64.605 63.7535 62.6356 61.4282 60.2211 59.1974 58.5013 58.0234 57.5306 56.9473 56.3273 55.6047 54.6245 53.2979 51.6382 49.7455 47.6192 45.2787 42.7563 40.2863 38.078 36.1214 34.2653 32.4039 30.6085 28.8281 27.0122 25.2558 23.7725 22.6691 21.7508 20.8795 19.976 19.1577 18.4776 18 17.5972 17.0495 16.2113 15.2338 14.2186 13.1199 11.764 10.1498 8.38753 6.7089 5.27036 4.13615 3.27068 2.76162 2.44098 2.06037 1.40882 0.709601 0.223145 0
0 -1.74666 -3.44584 -4.84897 -5.61898 -5.62218 -5.27252 -4.95517 -4.71248 -4.33467 -3.86433 -3.43936 -3.12674 -2.82434 -2.45047 -1.81707 -0.778709 0.755332 2.58539 4.44335 6.1424 7.65795 9.04128 10.3191 11.4915 12.5819 13.6422 14.7789 16.0749 17.4633 18.6581 19.697 21.1166 23.4178 26.331 29.2889 32.0841 34.6628 36.833 38.3487 39.4106 40.429 41.8307 43.778 46.0641 48.2834 50.1564 51.6376 52.791 53.4795 53.5589 53.0546 52.3682 51.7929 51.3123 51.0029 51.2016 52.2525 53.96 55.8695 57.515 58.7031 59.592 60.4059 61.2044 61.8735 62.4919 63.1224 63.6884 64.018 64.1891 64.2604 64.1906 63.7893 63.0652 62.0893 60.9772 59.8531 58.9881 58.566 58.4035 58.2096 57.8863 57.4308 56.7191 55.4929 53.7346 51.5812 49.3119 46.9786 44.5013 41.8528 39.3113 37.1708 35.3754 33.6323 31.7505 29.7669 27.7155 25.6734 23.8514 22.5324 21.725 21.1585 20.5294 19.7429 18.9178 18.2005 17.6938 17.2805 16.7232 15.8964 14.9992 14.1754 13.2997 12.0791 10.4683 8.628 6.88804 5.4675 4.37618 3.55473 3.04675 2.76555 2.37812 1.66364 0.856484 0.287549 0
0 -2.12952 -4.24192 -6.04181 -7.05416 -7.05485 -6.46442 -5.80862 -5.29141 -4.85029 -4.54083 -4.34304 -4.25834 -4.12918 -3.93604 -3.47368 -2.56466 -1.06495 0.811801 2.72823 4.43676 5.89947 7.16585 8.33067 9.43345 10.5379 11.6312 12.7841 14.0233 15.3478 16.5624 17.7754 19.4491 22.0268 25.2148 28.4206 31.2834 33.7059 35.6294 37.0218 38.1693 39.389 40.9629 42.9722 45.2655 47.5182 49.4831 51.1356 52.4632 53.2852 53.4862 53.1472 52.6593 52.2146 51.8204 51.5671 51.8396 52.9596 54.6948 56.5304 57.965 58.8117 59.2944 59.7283 60.3047 60.9182 61.5953 62.3052 62.9298 63.2631 63.3614 63.3331 63.2132 62.8605 62.2636 61.456 60.5497 59.6974 59.1147 58.8938 58.8765 58.8484 58.7154 58.3811 57.564 56.0012 53.7821 51.1755 48.5535 45.9312 43.2853 40.6022 38.1618 36.2071 34.5881 32.9778 31.0698 28.8982 26.5594 24.3236 22.5561 21.5034 21.0569 20.7883 20.3589 19.624 18.7526 17.9227 17.2913 16.7617 16.1655 15.3759 14.5894 13.8973 13.2116 12.1949 10.7636 8.9885 7.26918 5.83467 4.82014 4.08433 3.6353 3.32232 2.91567 2.16897 1.28546 0.537179 0
0 -2.07989 -4.28886 -6.34255 -7.66244 -7.8341 -7.2141 -6.38003 -5.69981 -5.2466 -5.06542 -5.12556 -5.25815 -5.31676 -5.29341 -5.02394 -4.2455 -2.7754 -0.91028 0.960622 2.6106 4.0273 5.24081 6.31619 7.37179 8.48743 9.64165 10.771 11.8527 12.9525 14.1063 15.5374 17.5256 20.3032 23.6017 26.9371 29.8658 32.2023 33.9966 35.4746 36.9607 38.6309 40.4864 42.4643 44.4907 46.5132 48.5145 50.4024 51.9749 52.9204 53.2369 53.119 52.9307 52.7657 52.5231 52.3075 52.5979 53.7451 55.4293 57.0068 58.037 58.4715 58.6236 58.8514 59.3106 59.9153 60.6089 61.348 61.972 62.2972 62.3664 62.3413 62.3062 62.1427 61.7217 61.0666 60.3832 59.8665 59.5671 59.4486 59.4171 59.3845 59.2588 58.8067 57.7327 55.8075 53.2856 50.4972 47.686 44.8746 42.1021 39.5066 37.2682 35.5011 34.0013 32.4125 30.4599 28.1394 25.6479 23.4136 21.8485 21.1225 20.9228 20.7775 20.3397 19.5507 18.5886 17.6819 16.9611 16.338 15.6628 14.8801 14.1094 13.4378 12.832 12.0294 10.8504 9.26924 7.60498 6.21471 5.26189 4.6484 4.23735 3.88257 3.41435 2.67018 1.73061 0.804203 0
0 -1.61162 -3.53388 -5.5825 -7.11782 -7.58159 -7.17412 -6.47445 -5.85404 -5.45475 -5.42084 -5.75245 -6.18261 -6.45915 -6.63652 -6.55444 -5.90785 -4.46528 -2.68172 -0.962669 0.552657 1.95921 3.19246 4.25348 5.28987 6.44936 7.65653 8.76162 9.68358 10.5507 11.6246 13.2304 15.4585 18.3076 21.5159 24.8224 27.7968 30.2243 32.1242 33.8407 35.719 37.8529 40.0101 41.9614 43.702 45.4586 47.4747 49.6327 51.5141 52.6496 53.0975 53.1371 53.2452 53.4365 53.4346 53.2183 53.4026 54.4566 55.93 57.0481 57.5025 57.4754 57.4183 57.6249 58.1138 58.7131 59.3797 60.1016 60.7061 61.0329 61.1314 61.2084 61.4002 61.5626 61.4124 60.9258 60.4166 60.1662 60.0816 59.9749 59.8281 59.6173 59.2569 58.4796 57.0455 54.8595 52.2693 49.5407 46.7832 43.9407 41.2079 38.808 36.8202 35.2122 33.6985 32.0429 30.0144 27.6892 25.2938 23.2675 21.997 21.4776 21.3091 21.0342 20.399 19.4507 18.3985 17.4986 16.7979 16.1674 15.4311 14.5577 13.6815 12.9067 12.28 11.5926 10.5917 9.15158 7.61126 6.34519 5.53879 5.00976 4.59627 4.15199 3.61972 2.85585 1.91777 0.916779 0
0 -1.10199 -2.56636 -4.33933 -5.87152 -6.58672 -6.58135 -6.27691 -5.95077 -5.75447 -5.92559 -6.52843 -7.22843 -7.73705 -8.11088 -8.22741 -7.72587 -6.40305 -4.75343 -3.2114 -1.80788 -0.396035 0.901802 2.01651 3.1233 4.35136 5.61301 6.73015 7.62872 8.4415 9.49086 11.1558 13.4545 16.2236 19.2484 22.3837 25.3562 27.9318 30.0933 32.1079 34.3171 36.7726 39.1729 41.2111 42.9101 44.6215 46.7121 49.0748 51.1921 52.5008 53.025 53.1602 53.4449 53.904 54.0954 53.8914 53.9454 54.7661 55.8893 56.5332 56.509 56.1921 56.065 56.338 56.8638 57.4294 58.0247 58.686 59.2621 59.6075 59.7894 59.9992 60.3835 60.8119 60.9473 60.6918 60.4 60.3597 60.4363 60.3431 60.0299 59.5016 58.7342 57.5368 55.8128 53.5459 51.0615 48.5473 45.9727 43.2942 40.7242 38.5336 36.7238 35.1286 33.5054 31.7084 29.6966 27.5685 25.5049 23.8313 22.7645 22.2443 21.8842 21.3425 20.475 19.3851 18.2941 17.4138 16.7426 16.1072 15.3111 14.34 13.3168 12.4212 11.72 11.0512 10.1197 8.8214 7.45675 6.40653 5.72356 5.21951 4.72555 4.17225 3.54355 2.76972 1.86416 0.912489 0
0 -0.797563 -1.84546 -3.16815 -4.45771 -5.32742 -5.76854 -5.99398 -6.11019 -6.25492 -6.66011 -7.42361 -8.28756 -9.02091 -9.61798 -9.91032 -9.58297 -8.45059 -6.9952 -5.55371 -4.17655 -2.74981 -1.42239 -0.233891 0.965254 2.29784 3.63932 4.85811 5.89514 6.8399 7.94764 9.54469 11.6976 14.266 17.0505 19.9591 22.8407 25.527 27.9552 30.269 32.6978 35.2761 37.7725 39.952 41.8823 43.8443 46.1505 48.6094 50.7567 52.0634 52.6318 52.8559 53.2384 53.7777 54.0457 53.9529 53.9378 54.4537 55.1407 55.4537 55.2957 55.0147 54.9783 55.2822 55.7436 56.2352 56.7467 57.3222 57.8082 58.1466 58.3917 58.6817 59.1226 59.6367 59.992 60.0665 60.0607 60.1717 60.3178 60.2506 59.8653 59.0567 57.8971 56.3253 54.4017 52.1498 49.8255 47.5373 45.24 42.8805 40.5936 38.5816 36.7805 35.0525 33.212 31.3065 29.4154 27.6492 26.045 24.7224 23.7478 23.0622 22.4275 21.6661 20.6998 19.6268 18.5599 17.6392 16.814 15.993 15.0519 13.9987 12.936 11.9926 11.2406 10.5473 9.68445 8.57832 7.46503 6.58847 5.9601 5.41677 4.83573 4.17702 3.44417 2.61335 1.74463 0.852776 0
0 -0.618862 -1.32611 -2.17083 -3.10718 -4.03924 -4.90112 -5.64474 -6.23255 -6.71755 -7.27572 -8.06447 -9.03503 -10.0243 -10.8779 -11.3183 -11.0978 -10.1523 -8.83691 -7.41701 -5.97341 -4.5372 -3.27532 -2.16829 -0.985862 0.434902 1.97475 3.41883 4.65457 5.75181 6.88049 8.30555 10.1728 12.4708 15.0266 17.7294 20.5107 23.2849 25.9379 28.454 30.9714 33.5009 35.923 38.1341 40.2821 42.6003 45.1939 47.7477 49.812 51.0646 51.695 52.0788 52.5635 53.1211 53.4551 53.4523 53.4118 53.6472 53.9899 54.1318 54.0372 53.9631 54.0766 54.3739 54.7289 55.1168 55.5544 56.0199 56.3864 56.641 56.8715 57.1739 57.5964 58.1346 58.6785 59.0843 59.3173 59.4272 59.5197 59.5116 59.2202 58.3755 56.9874 55.1423 53.0199 50.7334 48.4913 46.3958 44.3975 42.4317 40.4884 38.6219 36.7635 34.8025 32.7356 30.7709 29.0726 27.6992 26.5416 25.5422 24.6451 23.8207 22.9978 22.1507 21.2611 20.3354 19.3633 18.3094 17.1549 15.9242 14.7047 13.5735 12.5377 11.6093 10.8274 10.1497 9.4364 8.59818 7.72482 6.95606 6.31515 5.73447 5.12942 4.42866 3.61277 2.70342 1.77098 0.869405 0
0 -0.344314 -0.672873 -1.05339 -1.69274 -2.70411 -3.97171 -5.18646 -6.14538 -6.83231 -7.40722 -8.15736 -9.22081 -10.4648 -11.5243 -12.0212 -11.8054 -10.9254 -9.69073 -8.27107 -6.8093 -5.44589 -4.40197 -3.58803 -2.60423 -1.08404 0.76628 2.54025 3.94338 5.039 6.02661 7.18074 8.73014 10.7748 13.1387 15.6906 18.4143 21.2851 24.1173 26.7263 29.192 31.5397 33.7125 35.6952 37.8248 40.3477 43.2265 45.9452 48.0601 49.3744 50.1623 50.7636 51.429 52.1378 52.5531 52.5647 52.4324 52.5032 52.6601 52.6842 52.6345 52.724 52.9866 53.3354 53.6476 53.9787 54.3436 54.728 54.9615 55.0704 55.1639 55.4056 55.831 56.4804 57.2766 57.9778 58.3186 58.2668 58.1443 58.0966 57.9664 57.2632 55.8986 53.9201 51.6143 49.198 46.9207 44.9423 43.2068 41.6465 40.081 38.4705 36.619 34.4927 32.2313 30.2185 28.6743 27.5876 26.7929 26.1399 25.444 24.6544 23.7892 22.9655 22.2299 21.5424 20.6983 19.5286 17.9867 16.2386 14.6208 13.3005 12.2297 11.2688 10.4825 9.88301 9.36145 8.73476 8.03064 7.32075 6.71404 6.18003 5.64731 4.98944 4.12816 3.0953 2.0233 0.984879 0
0 0.0686561 0.2109 0.252764 -0.176142 -1.3349 -2.98424 -4.61973 -5.86714 -6.6503 -7.19076 -7.87075 -8.9485 -10.2825 -11.44 -11.9693 -11.7698 -10.9272 -9.70454 -8.3182 -6.98227 -5.89103 -5.24723 -4.86011 -4.10998 -2.48436 -0.234391 1.93693 3.5255 4.52043 5.20472 5.9892 7.2221 9.05187 11.2771 13.735 16.4084 19.3382 22.2783 24.935 27.2924 29.383 31.182 32.8035 34.7171 37.2999 40.3885 43.3679 45.7088 47.2441 48.2361 49.0274 49.9043 50.7603 51.25 51.2231 51.0521 51.0681 51.1547 51.105 51.0559 51.2352 51.6258 52.0718 52.4483 52.7685 53.0988 53.4082 53.5453 53.4844 53.3797 53.4844 53.9326 54.7834 55.8898 56.8754 57.3092 57.1083 56.7287 56.5041 56.3296 55.7058 54.4231 52.482 50.1301 47.6306 45.2773 43.2978 41.7176 40.462 39.3143 38.0496 36.3851 34.2393 31.8896 29.8255 28.3216 27.4061 26.8997 26.5933 26.2108 25.5917 24.7744 23.9812 23.3765 22.8675 22.1766 20.9996 19.2527 17.1309 15.0985 13.4621 12.1698 11.1099 10.3247 9.82668 9.42625 8.91971 8.29814 7.65721 7.11204 6.6741 6.26828 5.70445 4.86213 3.73064 2.47418 1.22001 0
0 0.534439 1.11525 1.47671 1.14143 -0.168203 -2.12206 -4.08815 -5.55646 -6.42071 -6.92809 -7.52019 -8.45876 -9.68137 -10.7984 -11.4207 -11.3505 -10.5971 -9.42807 -8.159 -7.1069 -6.47039 -6.32573 -6.32391 -5.73281 -3.96395 -1.36938 1.17987 2.95334 3.84901 4.23177 4.67346 5.65362 7.34839 9.48288 11.8623 14.4521 17.3543 20.3388 23.0353 25.2784 27.0567 28.4551 29.749 31.4918 34.0733 37.2861 40.4828 43.0876 44.877 46.0683 47.0151 47.9998 48.8802 49.3874 49.4278 49.3693 49.3901 49.4298 49.3452 49.3657 49.6421 50.1599 50.7254 51.2081 51.5801 51.8945 52.1284 52.1462 51.9172 51.5915 51.5232 51.9322 52.9538 54.329 55.6006 56.2139 56.0335 55.4902 54.9768 54.543 53.7852 52.55 50.7419 48.5338 46.1095 43.7281 41.6851 40.1034 39.0556 38.2607 37.3859 35.9844 33.9583 31.6254 29.5036 28.0068 27.2128 26.9908 26.9964 26.9026 26.4694 25.7529 25.0032 24.4497 24.0018 23.3935 22.3145 20.5728 18.3002 15.9579 13.9442 12.361 11.1936 10.4431 9.98154 9.59403 9.10738 8.55239 7.98283 7.53636 7.19451 6.89602 6.4057 5.57116 4.34355 2.93348 1.45976 0
0 0.886878 1.71898 2.15839 1.80969 0.426136 -1.63503 -3.74907 -5.34157 -6.25543 -6.75011 -7.24748 -7.99794 -8.9891 -10.0417 -10.8099 -10.9688 -10.4016 -9.38115 -8.34013 -7.6291 -7.42397 -7.71271 -8.01036 -7.49952 -5.62463 -2.82182 -0.10112 1.74153 2.576 2.82073 3.12493 4.04853 5.75082 7.88416 10.1913 12.6928 15.5476 18.5435 21.2337 23.3435 24.8567 25.9768 27.1131 28.7901 31.3371 34.5155 37.7541 40.4987 42.4727 43.8292 44.8718 45.8974 46.7863 47.3704 47.5924 47.6853 47.7335 47.7329 47.6865 47.7765 48.1145 48.6818 49.3484 49.9684 50.4207 50.7209 50.8205 50.6456 50.2006 49.6749 49.4374 49.7854 50.8614 52.3865 53.8367 54.6598 54.6568 54.1346 53.459 52.7951 51.9243 50.6764 48.9393 46.8293 44.5059 42.1637 40.051 38.4207 37.4406 36.8919 36.2929 35.1488 33.3143 31.1145 29.0705 27.6326 27.0019 27.0157 27.2793 27.4003 27.1577 26.6256 25.9768 25.3796 24.8034 24.1466 23.1095 21.4275 19.1042 16.5707 14.3187 12.5802 11.4258 10.7109 10.2358 9.79093 9.31948 8.83267 8.37599 8.01495 7.74316 7.46925 6.95182 6.05549 4.76561 3.26951 1.66065 0
0 0.944169 1.69299 1.92301 1.44535 0.106847 -1.77601 -3.77814 -5.3076 -6.19379 -6.67018 -7.12656 -7.75095 -8.57227 -9.52634 -10.3814 -10.7316 -10.4158 -9.70625 -9.04743 -8.69705 -8.77537 -9.29495 -9.77094 -9.35581 -7.48935 -4.74263 -2.15523 -0.45057 0.380522 0.737877 1.2285 2.38339 4.30412 6.53236 8.80166 11.2316 14.0631 17.0431 19.6484 21.6276 23.0313 24.1158 25.2696 26.9333 29.3486 32.294 35.3333 38.0207 40.0672 41.5267 42.6243 43.7168 44.739 45.5495 45.9595 46.1551 46.2299 46.2713 46.3084 46.4539 46.7476 47.2735 47.9889 48.722 49.2285 49.448 49.3281 48.8764 48.1837 47.485 47.1577 47.4487 48.4724 49.9122 51.3256 52.2408 52.4755 52.172 51.5936 50.9636 50.1376 48.9059 47.0873 44.9095 42.6165 40.3535 38.2729 36.6091 35.6218 35.1185 34.6219 33.6291 32.0029 30.0852 28.2978 27.0982 26.643 26.8569 27.3164 27.646 27.6439 27.3973 26.9043 26.2622 25.4437 24.5469 23.3589 21.57 19.1647 16.5564 14.2997 12.629 11.5796 10.9255 10.4394 9.97501 9.52052 9.10846 8.7458 8.46498 8.22127 7.87497 7.2074 6.18183 4.85098 3.37598 1.736 0
0 0.641599 1.01492 0.893138 0.266103 -0.89257 -2.43163 -4.09541 -5.44421 -6.26224 -6.73226 -7.18559 -7.77161 -8.48558 -9.32801 -10.1488 -10.6376 -10.6303 -10.3642 -10.1834 -10.2178 -10.5085 -11.1208 -11.6776 -11.3809 -9.70914 -7.25843 -5.00052 -3.45222 -2.49695 -1.80228 -0.90422 0.617199 2.80093 5.16937 7.45646 9.87226 12.6654 15.5647 18.0667 20.0159 21.5059 22.7551 24.0437 25.708 27.9114 30.4995 33.1747 35.6312 37.6163 39.103 40.2642 41.4512 42.6943 43.7541 44.3722 44.6623 44.8288 45.0065 45.2064 45.4081 45.6558 46.0862 46.764 47.4833 47.9158 47.9392 47.5534 46.8544 45.9784 45.1752 44.7846 45.0108 45.8643 47.0483 48.2243 49.1087 49.5536 49.5967 49.3313 48.9069 48.1783 46.9165 44.9856 42.7053 40.4328 38.2849 36.3052 34.6804 33.6429 33.0687 32.5367 31.638 30.2872 28.7563 27.405 26.5175 26.2758 26.6054 27.2024 27.7284 28.0201 28.0885 27.8325 27.1736 26.0971 24.817 23.2742 21.2754 18.7898 16.2265 14.0807 12.5392 11.5973 11.0205 10.5908 10.1541 9.74272 9.3775 9.06386 8.79369 8.47797 7.96115 7.10186 5.97145 4.67387 3.26105 1.68896 0
0 0.169477 0.100896 -0.33851 -1.03941 -2.02009 -3.19485 -4.49064 -5.60261 -6.3649 -6.88472 -7.39063 -7.99813 -8.65522 -9.36708 -10.0749 -10.6096 -10.8807 -11.0557 -11.3339 -11.7534 -12.2728 -12.9685 -13.5472 -13.408 -12.0916 -10.0852 -8.13056 -6.61584 -5.41624 -4.31979 -3.00906 -1.19177 1.14766 3.59275 5.94945 8.36774 11.0332 13.7669 16.195 18.2414 19.9268 21.4243 22.8954 24.5908 26.5848 28.8167 31.1006 33.234 35.0364 36.4829 37.7084 39.0037 40.3743 41.6347 42.5076 43.0268 43.3908 43.7265 44.0757 44.371 44.6835 45.1199 45.7167 46.2444 46.3983 46.1236 45.5332 44.7639 43.9092 43.1228 42.6586 42.7066 43.2775 44.1372 45.0613 45.8828 46.4851 46.838 46.8885 46.6078 45.8157 44.4337 42.4712 40.2967 38.1718 36.1973 34.356 32.8062 31.7412 31.0685 30.4619 29.6384 28.5407 27.4123 26.458 25.9158 25.8885 26.3343 27.0227 27.6721 28.1685 28.4887 28.4584 27.8988 26.6891 25.0949 23.2209 21.0591 18.6141 16.1623 14.0551 12.4645 11.4923 10.9511 10.6088 10.2689 9.92564 9.60054 9.29207 8.94579 8.45904 7.70843 6.69427 5.52695 4.28078 2.95579 1.50997 0
0 -0.10109 -0.397861 -0.952691 -1.67957 -2.54759 -3.54507 -4.61501 -5.58179 -6.33385 -6.97043 -7.61776 -8.28078 -8.8862 -9.46773 -10.0329 -10.524 -10.9169 -11.3495 -11.9439 -12.6781 -13.4582 -14.2781 -14.9158 -14.9659 -14.0675 -12.4914 -10.7379 -9.15014 -7.7171 -6.35218 -4.83275 -2.9205 -0.574806 1.91287 4.33684 6.73031 9.19326 11.6807 14.0391 16.1732 18.0295 19.7348 21.4082 23.1557 24.9996 26.9439 28.9042 30.7441 32.3476 33.7625 35.1081 36.5156 37.9671 39.3214 40.4056 41.1905 41.7487 42.1906 42.5853 42.98 43.4679 44.0829 44.6746 44.9297 44.6602 44.0435 43.361 42.7552 42.1625 41.5343 40.9959 40.7422 40.936 41.5216 42.3425 43.1882 43.8966 44.4037 44.5839 44.2928 43.324 41.7903 39.9081 37.9917 36.1502 34.3755 32.6716 31.1935 30.1185 29.3904 28.7541 27.981 27.0624 26.1782 25.5404 25.2594 25.4123 25.9345 26.6753 27.4117 28.0178 28.4552 28.5663 28.1346 27.0027 25.3757 23.4306 21.299 18.9947 16.6052 14.3298 12.4546 11.2625 10.6706 10.4196 10.2113 9.96959 9.68578 9.35732 8.91 8.22266 7.28346 6.18608 5.05089 3.88262 2.6432 1.33442 0
0 0.00505782 -0.187025 -0.656128 -1.33968 -2.19498 -3.21843 -4.31131 -5.32996 -6.14555 -6.94275 -7.76854 -8.54058 -9.09863 -9.54291 -9.94474 -10.2959 -10.5955 -11.0361 -11.7261 -12.6399 -13.6014 -14.5657 -15.3222 -15.6055 -15.0777 -13.834 -12.2288 -10.6227 -9.14263 -7.7639 -6.28929 -4.46068 -2.13842 0.376798 2.84039 5.12953 7.33728 9.5453 11.7529 13.8654 15.7788 17.6317 19.4953 21.345 23.0846 24.8068 26.533 28.185 29.7048 31.1617 32.6485 34.2089 35.7132 37.0944 38.2454 39.1407 39.7974 40.2182 40.5718 41.0063 41.7184 42.6357 43.3714 43.4742 42.8398 41.917 41.2064 40.8423 40.6039 40.2402 39.7076 39.2169 39.0687 39.4676 40.2951 41.2399 41.9968 42.4829 42.5949 42.1775 41.0525 39.4334 37.6426 36.004 34.4624 32.9392 31.3871 29.9989 28.9242 28.1599 27.4983 26.7352 25.853 25.0811 24.6224 24.5374 24.769 25.3182 26.0912 26.8778 27.4858 27.8765 27.9551 27.6327 26.7947 25.524 23.8779 21.9781 19.8057 17.3504 14.7559 12.4546 10.9326 10.2131 10.0178 9.93167 9.77249 9.49697 9.14065 8.61999 7.83346 6.81844 5.73584 4.68232 3.60714 2.4481 1.22398 0
0 0.311351 0.416128 0.191539 -0.372406 -1.27218 -2.46389 -3.79618 -5.02784 -6.02717 -6.97299 -7.94591 -8.80053 -9.31162 -9.60305 -9.82923 -10.0072 -10.1472 -10.4425 -11.0592 -11.9565 -12.997 -14.0752 -14.9899 -15.4691 -15.1874 -14.1772 -12.7385 -11.2824 -9.97002 -8.80968 -7.57266 -5.92417 -3.66772 -1.08992 1.41147 3.6139 5.59737 7.53015 9.51885 11.5016 13.4171 15.3719 17.4075 19.3487 21.0248 22.5307 24.046 25.62 27.1971 28.8076 30.4826 32.1658 33.6941 34.9937 36.047 36.885 37.4745 37.8285 38.1026 38.5974 39.5379 40.7908 41.8009 41.9771 41.2026 40.0818 39.2711 38.9908 38.9764 38.8722 38.5133 38.0225 37.7745 38.0727 38.8812 39.8271 40.5173 40.8553 40.7948 40.2446 39.0551 37.438 35.7498 34.2907 33.0083 31.7215 30.3812 29.1253 28.0903 27.2782 26.5743 25.8134 24.9801 24.2834 23.9497 23.9415 24.1869 24.7106 25.4605 26.2009 26.6884 26.898 26.8302 26.5572 26.0866 25.4124 24.3368 22.7816 20.6608 18.0054 15.0666 12.4267 10.6687 9.83909 9.62957 9.5589 9.39019 9.08239 8.68074 8.13768 7.34976 6.37713 5.37598 4.43869 3.46229 2.35753 1.17262 0
0 0.541191 0.909015 0.94112 0.527587 -0.41781 -1.81418 -3.37866 -4.84818 -6.04074 -7.13535 -8.16812 -9.02102 -9.44809 -9.60998 -9.69317 -9.76733 -9.81485 -9.98376 -10.428 -11.1877 -12.1923 -13.3394 -14.3529 -14.9234 -14.7518 -13.8981 -12.716 -11.579 -10.6151 -9.79373 -8.85612 -7.4513 -5.29409 -2.7145 -0.15205 2.04541 3.9367 5.67372 7.41288 9.19202 11.0559 13.084 15.2222 17.2173 18.8479 20.1938 21.5481 23.0883 24.7926 26.5888 28.4038 30.1368 31.5918 32.7863 33.7396 34.5245 35.0909 35.4 35.6631 36.206 37.3259 38.869 40.1918 40.6282 39.9625 38.7793 37.7794 37.3176 37.2712 37.3377 37.2554 37.0545 36.9692 37.2892 37.9533 38.6726 39.1117 39.2231 39.0129 38.3855 37.223 35.6656 34.0701 32.7238 31.5982 30.5271 29.4135 28.3347 27.3485 26.5042 25.7894 25.1384 24.493 23.9461 23.6409 23.6018 23.8092 24.2983 24.9202 25.4329 25.6095 25.5377 25.3027 25.0868 24.9656 24.8616 24.3755 23.1445 21.0028 18.1417 15.0324 12.3573 10.6152 9.76415 9.4504 9.24843 8.99325 8.62731 8.18638 7.61817 6.85083 5.95566 5.05279 4.21568 3.31064 2.2595 1.11781 0
0 0.597619 1.05479 1.20153 0.85727 -0.149161 -1.64521 -3.29786 -4.79426 -6.06208 -7.22411 -8.26296 -9.01272 -9.3149 -9.37753 -9.43531 -9.54313 -9.6391 -9.76695 -10.0898 -10.7332 -11.7096 -12.8466 -13.8257 -14.3198 -14.1242 -13.4302 -12.5935 -11.8862 -11.3113 -10.8342 -10.2187 -9.07211 -7.08262 -4.54718 -1.97797 0.292268 2.25242 3.94577 5.44115 6.93348 8.65298 10.6743 12.8372 14.8383 16.4568 17.7563 19.0364 20.5529 22.339 24.2685 26.1682 27.8746 29.2576 30.3829 31.3505 32.2376 32.9573 33.4139 33.7251 34.2986 35.5079 37.2382 38.813 39.4955 39.0188 37.8709 36.712 35.9974 35.7859 35.8919 36.0722 36.2049 36.393 36.7468 37.1768 37.4838 37.5404 37.4085 37.0996 36.4932 35.4318 34.0198 32.5567 31.2852 30.2465 29.3231 28.4108 27.4381 26.4366 25.5548 24.9555 24.6082 24.3381 23.9973 23.6435 23.4456 23.5545 23.9406 24.3451 24.4726 24.2349 23.8268 23.4899 23.3882 23.5331 23.7726 23.6202 22.5905 20.4513 17.5621 14.5886 12.2106 10.7421 9.94739 9.46899 9.03695 8.62733 8.21536 7.74764 7.15275 6.39047 5.54466 4.721 3.94778 3.11811 2.16154 1.09469 0
0 0.498785 0.85996 0.931009 0.530354 -0.469783 -1.89077 -3.36504 -4.68538 -5.83578 -6.95478 -7.92833 -8.55378 -8.72967 -8.78133 -8.95318 -9.24698 -9.49825 -9.68406 -10.0036 -10.6247 -11.5783 -12.6355 -13.4626 -13.7947 -13.5557 -13.0463 -12.5902 -12.3094 -12.0769 -11.9018 -11.5753 -10.6962 -8.89689 -6.52952 -4.08818 -1.80156 0.319149 2.09158 3.41628 4.60572 6.09666 7.9977 10.0935 12.0756 13.7531 15.1299 16.4568 17.9703 19.7621 21.6991 23.5939 25.2611 26.6273 27.8091 28.9127 30.0853 31.1964 31.9933 32.4631 33.0348 34.2433 36.0159 37.6724 38.4856 38.1665 37.1437 36.0056 35.1904 34.8106 34.8264 35.0664 35.3742 35.7116 36.0322 36.1938 36.084 35.7809 35.4334 35.093 34.5534 33.6725 32.467 31.1944 30.0223 29.0391 28.2221 27.4431 26.5083 25.424 24.5222 24.1128 24.1566 24.2807 24.1216 23.6682 23.2284 23.1219 23.3049 23.4179 23.1586 22.5224 21.8443 21.4602 21.4738 21.7428 22.0371 21.9105 20.9295 18.9255 16.3224 13.7991 11.9337 10.8272 10.1294 9.49664 8.83317 8.25455 7.77228 7.28338 6.66657 5.89008 5.08816 4.31248 3.62171 2.89882 2.0894 1.10506 0
0 0.259586 0.403357 0.291884 -0.203158 -1.12679 -2.29419 -3.44898 -4.47585 -5.42415 -6.39401 -7.25483 -7.79298 -7.9579 -8.08583 -8.43693 -8.92684 -9.34792 -9.6633 -10.0543 -10.6917 -11.5798 -12.499 -13.1646 -13.4044 -13.2411 -12.98 -12.8787 -12.938 -12.9923 -13.0692 -13.0044 -12.3591 -10.7948 -8.69085 -6.4956 -4.29693 -2.10419 -0.25805 1.02391 2.09836 3.44554 5.18684 7.14461 9.07911 10.8247 12.339 13.772 15.31 17.0487 18.9144 20.7497 22.411 23.8544 25.16 26.469 27.934 29.4406 30.6262 31.3574 32.0756 33.309 35.0379 36.6471 37.4906 37.3105 36.4889 35.5398 34.7987 34.3366 34.1622 34.2517 34.4876 34.7637 34.9266 34.8278 34.433 33.8959 33.4174 33.0341 32.5712 31.8641 30.9251 29.8966 28.8999 28.0177 27.2922 26.6151 25.7401 24.6715 23.8057 23.5286 23.7424 24.0161 23.9234 23.3936 22.7652 22.4051 22.3055 22.1324 21.5971 20.746 19.9321 19.5013 19.4835 19.664 19.7898 19.5166 18.5597 16.8576 14.7991 12.8983 11.5379 10.7185 10.0924 9.37703 8.56462 7.84241 7.27577 6.74609 6.12733 5.38058 4.61368 3.8975 3.26293 2.65064 1.97172 1.08004 0
0 -0.0515124 -0.185153 -0.465308 -1.01094 -1.74434 -2.61079 -3.41218 -4.20521 -4.9414 -5.7425 -6.45072 -6.95654 -7.21943 -7.53095 -8.03618 -8.64586 -9.1649 -9.55624 -10.0044 -10.6172 -11.4075 -12.1738 -12.744 -13.0427 -13.1151 -13.1817 -13.3737 -13.6858 -13.9424 -14.2134 -14.3174 -13.8665 -12.5483 -10.6981 -8.72059 -6.67552 -4.62655 -2.84018 -1.46243 -0.210534 1.25263 2.93513 4.75559 6.57497 8.32614 9.91722 11.4543 13.0288 14.7598 16.5543 18.3225 19.9508 21.4388 22.8416 24.2715 25.8738 27.5355 28.9397 29.9859 30.9654 32.2971 33.9677 35.541 36.4759 36.5185 35.97 35.2539 34.6405 34.1449 33.8037 33.6478 33.6346 33.663 33.5824 33.3084 32.7984 32.2063 31.6574 31.2064 30.7378 30.1641 29.467 28.7157 27.9503 27.2477 26.6483 26.1024 25.4001 24.5435 23.7948 23.4645 23.4843 23.5647 23.371 22.8021 22.0617 21.448 21.006 20.5274 19.8505 19.0266 18.2592 17.7594 17.5269 17.4068 17.2515 16.8035 15.929 14.6294 13.1982 11.907 10.9519 10.2827 9.69583 8.98771 8.18484 7.41707 6.78021 6.18183 5.55633 4.84152 4.15129 3.4884 2.91907 2.36011 1.75748 0.968742 0
0 -0.34827 -0.729596 -1.16248 -1.67235 -2.21345 -2.79846 -3.37903 -3.96629 -4.52094 -5.10206 -5.65117 -6.13158 -6.54678 -7.05075 -7.68975 -8.33118 -8.80875 -9.13694 -9.52204 -10.1218 -10.8834 -11.5874 -12.1206 -12.5336 -12.9197 -13.3571 -13.8431 -14.2998 -14.6363 -14.9495 -15.1341 -14.8103 -13.6142 -11.7984 -9.81996 -7.94243 -6.22181 -4.68627 -3.23196 -1.6311 0.175023 2.00243 3.72901 5.38016 7.02796 8.60814 10.1521 11.7883 13.6074 15.4608 17.1734 18.7037 20.1095 21.4511 22.8107 24.2587 25.7332 27.0729 28.258 29.4398 30.8348 32.5056 34.1887 35.3893 35.7646 35.5216 35.0247 34.5231 34.0439 33.631 33.2916 32.9772 32.665 32.3389 31.9619 31.5013 30.9672 30.3955 29.8128 29.242 28.7142 28.2113 27.7074 27.2009 26.7418 26.351 26.0013 25.566 25.0025 24.3831 23.873 23.5281 23.2598 22.8547 22.1717 21.2998 20.4035 19.5284 18.6392 17.8026 17.1312 16.5856 16.0773 15.6015 15.1797 14.7514 14.1685 13.3745 12.4339 11.5281 10.7509 10.1122 9.54304 8.97158 8.33704 7.64371 6.92586 6.24779 5.59519 4.95183 4.30151 3.69324 3.14319 2.62704 2.0877 1.49353 0.79214 0
0 -0.529795 -1.09557 -1.62839 -2.13179 -2.4861 -2.88124 -3.27202 -3.72325 -4.07263 -4.43468 -4.80567 -5.2527 -5.76867 -6.4424 -7.20878 -7.86242 -8.20667 -8.32069 -8.53263 -9.08718 -9.907 -10.6551 -11.2072 -11.723 -12.3944 -13.2239 -14.0042 -14.5701 -14.8332 -15.047 -15.1949 -14.8517 -13.5153 -11.3789 -9.14662 -7.2918 -5.9338 -4.77426 -3.42079 -1.60132 0.587168 2.65764 4.39464 5.88098 7.41545 8.90019 10.3711 12.0171 14.0059 16.0271 17.7469 19.1263 20.2993 21.3658 22.3847 23.4194 24.4577 25.4438 26.4731 27.5821 28.9524 30.6781 32.6399 34.2291 35.0014 35.0523 34.7713 34.3826 33.9484 33.54 33.1165 32.6046 32.0383 31.5182 31.1015 30.7047 30.2395 29.6092 28.8535 28.1348 27.609 27.2278 26.9216 26.6338 26.4668 26.3635 26.3088 26.1585 25.8414 25.26 24.5726 23.9259 23.3821 22.7181 21.7628 20.5507 19.2122 17.7451 16.2624 15.1364 14.639 14.4181 14.0641 13.5022 12.9352 12.3814 11.7197 10.9773 10.2615 9.72794 9.36265 9.02808 8.58012 8.0434 7.47295 6.88099 6.22485 5.54227 4.86406 4.23246 3.63963 3.15453 2.75098 2.34603 1.84223 1.24519 0.624726 0
0 -0.650831 -1.33172 -1.98239 -2.49877 -2.78482 -2.99054 -3.22594 -3.49438 -3.66494 -3.78013 -3.97981 -4.36229 -4.95667 -5.7652 -6.64505 -7.28885 -7.45923 -7.30522 -7.25485 -7.65538 -8.46177 -9.29067 -9.93938 -10.6073 -11.5727 -12.7887 -13.9117 -14.6093 -14.8115 -14.8874 -14.889 -14.3088 -12.5393 -9.85009 -7.13221 -5.13879 -4.00922 -3.27349 -2.26638 -0.55272 1.74536 4.01917 5.84552 7.32371 8.77424 10.1746 11.5288 13.1498 15.2501 17.4643 19.2855 20.5978 21.5056 22.1629 22.676 23.1678 23.6484 24.127 24.7575 25.6451 26.9822 28.8729 31.1327 33.0732 34.1562 34.4899 34.4337 34.2089 33.8524 33.4485 32.9992 32.4346 31.7727 31.1519 30.6594 30.2366 29.7139 28.9527 28.027 27.1918 26.6658 26.3655 26.1829 26.1056 26.2329 26.4984 26.7814 26.9002 26.6922 26.0998 25.2774 24.4658 23.6954 22.7486 21.4064 19.717 17.7715 15.5569 13.3591 11.8284 11.3922 11.5139 11.4716 11.0765 10.5762 10.0358 9.39847 8.72837 8.20703 7.95936 7.93047 7.86931 7.57253 7.08288 6.53665 5.96784 5.33368 4.65969 4.01099 3.42081 2.93254 2.58794 2.35091 2.05896 1.60269 1.0391 0.490776 0
0 -0.709848 -1.47405 -2.19733 -2.79271 -3.05296 -3.14953 -3.18813 -3.27921 -3.26636 -3.20352 -3.25942 -3.63653 -4.35059 -5.31122 -6.24683 -6.82998 -6.81688 -6.41331 -6.05069 -6.16019 -6.7772 -7.59094 -8.37513 -9.2883 -10.5663 -12.1403 -13.5572 -14.429 -14.669 -14.6968 -14.5278 -13.6246 -11.3863 -8.13964 -4.93216 -2.66737 -1.59109 -1.16759 -0.569724 0.774948 2.88655 5.17884 7.18961 8.80966 10.279 11.5876 12.8606 14.411 16.4842 18.7789 20.7571 22.134 22.8585 23.123 23.1664 23.1866 23.2033 23.2089 23.4416 24.1196 25.5315 27.6044 30.0297 32.0613 33.307 33.833 33.9974 33.9268 33.6529 33.278 32.8622 32.3654 31.7552 31.0968 30.4858 29.8717 29.1276 28.1561 27.093 26.2164 25.7305 25.5205 25.4949 25.6508 26.0994 26.7395 27.3529 27.6742 27.4945 26.8266 25.8929 24.9062 23.8742 22.5877 20.8901 18.7362 16.1529 13.2079 10.3764 8.46793 7.97657 8.28093 8.54912 8.39079 8.02017 7.56337 7.0615 6.61911 6.38163 6.41519 6.62108 6.72846 6.55572 6.12086 5.58668 4.99521 4.35635 3.7042 3.10574 2.58792 2.22395 2.03842 1.94429 1.76027 1.38213 0.893005 0.415087 0
0 -0.754905 -1.54584 -2.32226 -2.954 -3.26276 -3.30527 -3.20921 -3.09966 -2.93502 -2.75153 -2.78332 -3.27824 -4.22665 -5.34599 -6.24223 -6.65231 -6.45806 -5.85523 -5.22648 -5.01227 -5.34972 -6.01389 -6.85409 -7.97562 -9.53703 -11.3492 -12.9143 -13.8516 -14.14 -14.2085 -14.0114 -12.9705 -10.4748 -6.94574 -3.47459 -1.04225 0.0882235 0.42979 0.806909 1.86023 3.69541 5.90566 8.04557 9.87208 11.3907 12.6663 13.8968 15.3847 17.3024 19.4925 21.5324 22.9941 23.6434 23.6935 23.4815 23.2654 23.0494 22.8077 22.7971 23.3842 24.8693 27.0159 29.3177 31.1935 32.3952 33.0562 33.3704 33.4252 33.2296 32.9316 32.6306 32.2806 31.775 31.1131 30.3229 29.4104 28.3442 27.1497 26.0073 25.1594 24.7702 24.7286 24.9443 25.4178 26.2038 27.1833 28.0505 28.5046 28.299 27.5224 26.3973 25.1576 23.778 22.1933 20.2306 17.7799 14.7657 11.3428 8.14028 5.98521 5.32013 5.55895 5.84875 5.74388 5.39746 5.02138 4.75426 4.66564 4.79514 5.09341 5.42693 5.59362 5.47146 5.10968 4.60235 4.00023 3.35017 2.71899 2.17377 1.74386 1.50813 1.46599 1.49361 1.42243 1.16898 0.792126 0.384076 0
0 -0.698353 -1.43978 -2.16354 -2.80821 -3.18234 -3.27936 -3.1368 -2.91749 -2.65886 -2.49078 -2.62731 -3.3602 -4.55288 -5.7784 -6.50842 -6.67772 -6.31706 -5.63252 -4.87118 -4.4425 -4.50245 -4.91666 -5.59383 -6.72711 -8.39434 -10.2727 -11.7953 -12.6413 -12.9266 -13.1321 -13.1574 -12.3037 -9.92053 -6.49199 -3.12921 -0.733649 0.538644 1.10192 1.66171 2.73268 4.45921 6.56464 8.72833 10.6571 12.2526 13.5623 14.8296 16.2415 17.9067 19.7884 21.6574 23.0682 23.7099 23.7427 23.5474 23.3739 23.2171 22.9988 22.9761 23.5442 25.0021 26.955 28.8936 30.4 31.461 32.1354 32.5396 32.6595 32.5564 32.391 32.279 32.1196 31.7311 31.0289 30.0323 28.7973 27.4204 26.0241 24.8443 24.0996 23.9107 24.1642 24.7246 25.5683 26.6754 27.9132 28.94 29.4595 29.2023 28.2661 26.8662 25.2818 23.6079 21.793 19.6826 17.0933 13.9549 10.466 7.22974 4.98622 4.05859 3.90309 3.79291 3.39146 2.93732 2.66589 2.7084 2.99155 3.4522 3.91951 4.30918 4.45823 4.35108 4.0197 3.54123 2.92559 2.26525 1.65006 1.16545 0.816551 0.685558 0.742594 0.873482 0.941419 0.860187 0.655852 0.343632 0
0 -0.587101 -1.1967 -1.81571 -2.39473 -2.81809 -3.01104 -2.94773 -2.75036 -2.55115 -2.50397 -2.82354 -3.69993 -4.97537 -6.13663 -6.68871 -6.65497 -6.21378 -5.54662 -4.80221 -4.28437 -4.13172 -4.21711 -4.58169 -5.47551 -7.01918 -8.79213 -10.2027 -10.9912 -11.3749 -11.838 -12.2174 -11.726 -9.7016 -6.67632 -3.6804 -1.41622 0.0708162 1.11343 2.14759 3.50512 5.27533 7.31112 9.40296 11.3297 12.9827 14.4192 15.7841 17.1482 18.5272 19.9836 21.4604 22.6585 23.2781 23.4241 23.409 23.4464 23.5012 23.477 23.5772 24.1714 25.4405 27.0024 28.4293 29.5462 30.4059 31.0586 31.5077 31.7422 31.7931 31.815 31.8853 31.8692 31.5019 30.6907 29.4848 28.0314 26.4551 24.9256 23.7323 23.1361 23.2536 23.8703 24.8195 25.9957 27.3624 28.7813 29.9144 30.4378 30.0686 28.902 27.1822 25.2838 23.365 21.4219 19.2418 16.6599 13.6462 10.3857 7.34364 5.05673 3.74003 2.93727 2.16115 1.32168 0.769852 0.665347 0.994136 1.54981 2.18898 2.75972 3.17343 3.32756 3.20353 2.86857 2.3813 1.77622 1.12685 0.536928 0.0934225 -0.182432 -0.23841 -0.108718 0.109561 0.303413 0.410074 0.396228 0.242342 0
0 -0.472802 -0.933169 -1.37205 -1.80681 -2.17844 -2.43933 -2.54755 -2.58105 -2.61833 -2.79635 -3.20296 -4.0096 -5.05318 -6.00982 -6.4584 -6.41092 -5.99488 -5.39098 -4.73775 -4.21972 -3.89682 -3.68448 -3.70709 -4.26245 -5.48587 -7.00583 -8.36191 -9.3074 -10.0378 -10.8618 -11.5389 -11.3386 -9.71148 -7.18482 -4.57528 -2.41671 -0.627961 0.954833 2.55023 4.23189 6.06965 8.02252 10.0281 11.9352 13.6872 15.2898 16.8013 18.1255 19.2415 20.2551 21.2985 22.2224 22.8065 23.0824 23.2736 23.5486 23.8494 24.0534 24.3304 24.9152 25.9056 26.9458 27.8715 28.6272 29.3461 29.9513 30.4552 30.7876 31.0115 31.1971 31.3889 31.3764 30.8834 29.8982 28.5781 27.1098 25.5554 24.0091 22.7945 22.2911 22.6441 23.5922 24.8365 26.2133 27.6954 29.2023 30.4225 30.9491 30.4522 29.0775 27.1627 25.0774 23.0276 20.9781 18.7993 16.2982 13.5415 10.6367 7.88188 5.55961 3.7829 2.26745 0.824283 -0.391079 -0.969486 -0.928543 -0.408844 0.242335 0.963991 1.57201 2.02867 2.20416 2.10028 1.7617 1.27915 0.696863 0.0943957 -0.453261 -0.867923 -1.09204 -1.08501 -0.890301 -0.619198 -0.345426 -0.119806 0.0285998 0.0567538 0
0 -0.434255 -0.769777 -1.00908 -1.21158 -1.40726 -1.64483 -1.98005 -2.41814 -2.87216 -3.27656 -3.66054 -4.1643 -4.821 -5.50022 -5.93604 -5.97537 -5.60722 -5.04684 -4.50718 -4.05578 -3.63835 -3.23057 -3.04904 -3.30386 -4.11694 -5.30191 -6.64407 -7.9354 -9.14794 -10.3245 -11.1396 -11.0424 -9.6708 -7.51958 -5.22261 -3.13277 -1.12822 0.893082 2.9263 4.87063 6.71877 8.56696 10.505 12.4551 14.333 16.1333 17.7859 19.0827 19.9351 20.605 21.358 22.1541 22.7492 23.0933 23.375 23.7893 24.2881 24.7093 25.0955 25.596 26.2148 26.7446 27.1895 27.6802 28.3024 28.9259 29.4538 29.8132 30.0567 30.3034 30.5115 30.4018 29.7023 28.5614 27.2825 26.0356 24.7246 23.3032 22.0704 21.5025 21.9007 22.9685 24.3037 25.6367 27.0148 28.5051 29.8382 30.494 30.0283 28.6297 26.6919 24.589 22.4719 20.3758 18.2042 15.8475 13.364 10.8372 8.39165 6.10895 4.01653 1.95866 0.00184292 -1.5488 -2.26328 -2.23745 -1.72608 -1.02256 -0.228547 0.469698 0.940013 1.12846 1.06291 0.796562 0.354449 -0.166133 -0.679692 -1.15089 -1.53708 -1.73285 -1.65496 -1.39551 -1.09733 -0.810038 -0.535869 -0.298521 -0.126907 0
0 -0.409716 -0.65354 -0.740853 -0.741774 -0.721512 -0.889805 -1.41113 -2.26986 -3.12539 -3.71567 -3.97683 -4.17009 -4.48853 -4.98076 -5.42255 -5.50665 -5.14926 -4.61899 -4.22421 -3.89413 -3.46369 -3.00362 -2.79047 -2.87674 -3.34032 -4.1889 -5.50674 -7.05872 -8.62696 -10.001 -10.8197 -10.6831 -9.37702 -7.45147 -5.38031 -3.40834 -1.31543 0.951781 3.29557 5.42028 7.25883 8.99737 10.9031 12.9343 14.9675 16.9463 18.7514 20.0187 20.6645 21.1177 21.8045 22.6505 23.2748 23.5683 23.7579 24.1622 24.8151 25.4333 25.8943 26.226 26.4913 26.5284 26.5558 26.77 27.3386 27.9903 28.5431 28.806 28.9031 29.0063 29.1066 28.8453 27.9654 26.7717 25.6761 24.8022 23.8396 22.5987 21.3169 20.5846 20.8159 21.7668 22.9389 24.0148 25.123 26.4867 27.9328 28.8511 28.6631 27.5076 25.7678 23.7889 21.7363 19.6431 17.5187 15.2873 13.0786 10.9117 8.81841 6.72165 4.57923 2.28077 -0.0018863 -1.89546 -2.92348 -3.18504 -2.84623 -2.17317 -1.27791 -0.48943 -0.0487661 0.119613 0.113949 -0.0378838 -0.394952 -0.817033 -1.18441 -1.53386 -1.88728 -2.05109 -1.91022 -1.59464 -1.29646 -1.02178 -0.731014 -0.451598 -0.215797 0
0 -0.317425 -0.500916 -0.544676 -0.490136 -0.403973 -0.5276 -1.13322 -2.16755 -3.20426 -3.84464 -4.02909 -4.05912 -4.23903 -4.65304 -5.07482 -5.15547 -4.80547 -4.36983 -4.12792 -3.91762 -3.53406 -3.1263 -2.95786 -2.98551 -3.22586 -3.84545 -5.03418 -6.58959 -8.20483 -9.61749 -10.4196 -10.2435 -8.98512 -7.19111 -5.28879 -3.39032 -1.2578 1.15842 3.68676 5.97385 7.84284 9.53702 11.4104 13.4946 15.6374 17.7789 19.7187 21.0514 21.6448 22.0585 22.7664 23.6297 24.1728 24.2631 24.217 24.4833 25.1848 25.9789 26.5138 26.7124 26.6251 26.2671 25.8884 25.8464 26.3058 26.996 27.5716 27.7856 27.6962 27.5631 27.4329 27.0167 26.0821 24.9638 24.0975 23.5024 22.7723 21.6271 20.3072 19.4404 19.461 20.1308 20.997 21.7784 22.6478 23.8934 25.3882 26.5202 26.6599 25.8634 24.4414 22.7202 20.8052 18.8033 16.7367 14.6629 12.7065 10.9015 9.15651 7.3188 5.26448 2.9212 0.47637 -1.66744 -3.06481 -3.72435 -3.73805 -3.22934 -2.35056 -1.53392 -1.09642 -0.927216 -0.867431 -0.928209 -1.18381 -1.4412 -1.61557 -1.83219 -2.11523 -2.23353 -2.03249 -1.68848 -1.38125 -1.09448 -0.771829 -0.46332 -0.214284 0
0 -0.242688 -0.39543 -0.451278 -0.464898 -0.465711 -0.647528 -1.19725 -2.11866 -3.01933 -3.57997 -3.74821 -3.81439 -4.02807 -4.45118 -4.85981 -4.94692 -4.68543 -4.39405 -4.26776 -4.16789 -3.90925 -3.64274 -3.53288 -3.55086 -3.74721 -4.24313 -5.17795 -6.37857 -7.70629 -8.9842 -9.8059 -9.7469 -8.62132 -6.95424 -5.08713 -3.14707 -0.921573 1.58803 4.21656 6.61661 8.59474 10.3185 12.1657 14.2537 16.4722 18.743 20.804 22.2679 22.9854 23.4776 24.1145 24.7601 24.9923 24.7703 24.4714 24.5473 25.169 26.0201 26.6711 26.8498 26.5551 25.8639 25.1605 24.8525 25.1828 25.8607 26.4876 26.709 26.5374 26.1831 25.7781 25.1802 24.2781 23.3507 22.6616 22.1682 21.4514 20.3122 19.0024 18.0994 17.9254 18.2946 18.8701 19.5026 20.3463 21.5511 22.9514 24.0286 24.2792 23.7697 22.7252 21.3668 19.709 17.8577 15.9043 13.9984 12.2798 10.7883 9.34377 7.70933 5.73072 3.40658 0.973514 -1.21574 -2.79357 -3.7922 -4.21987 -4.10703 -3.50525 -2.78977 -2.34107 -2.09954 -1.99635 -1.98117 -2.09671 -2.16853 -2.18444 -2.28686 -2.46133 -2.49618 -2.25371 -1.88159 -1.5169 -1.16266 -0.794034 -0.464757 -0.206861 0
0 -0.345821 -0.53922 -0.586291 -0.612173 -0.716678 -0.976685 -1.45812 -2.14132 -2.81031 -3.24345 -3.42466 -3.57222 -3.86267 -4.30685 -4.68162 -4.77394 -4.59212 -4.42119 -4.41905 -4.49892 -4.49686 -4.41511 -4.33837 -4.36892 -4.6151 -5.07282 -5.65126 -6.27669 -7.05774 -8.06985 -8.97241 -9.19034 -8.33476 -6.73772 -4.78719 -2.6963 -0.366231 2.18335 4.82846 7.28687 9.36009 11.1814 13.0737 15.2132 17.5277 19.9021 22.0328 23.5674 24.3762 24.8787 25.3239 25.5869 25.3839 24.8483 24.3837 24.3157 24.746 25.4883 26.1821 26.4638 26.1247 25.2706 24.317 23.7865 23.9464 24.5598 25.1655 25.3997 25.2089 24.7538 24.1258 23.3442 22.477 21.7379 21.211 20.7192 19.9581 18.8455 17.6323 16.737 16.4018 16.5039 16.8996 17.5406 18.5027 19.7051 20.8713 21.6448 21.7783 21.4039 20.6868 19.7229 18.4098 16.8108 15.0356 13.2826 11.7157 10.4149 9.18933 7.72147 5.80794 3.56285 1.26607 -0.793791 -2.39293 -3.56654 -4.33309 -4.6488 -4.42342 -3.92445 -3.50389 -3.27954 -3.16662 -3.08485 -3.03573 -2.98164 -2.93234 -2.93807 -2.96726 -2.89146 -2.6117 -2.19465 -1.72893 -1.28014 -0.865843 -0.512088 -0.23334 0
0 -0.60168 -0.91366 -0.915972 -0.865767 -0.964541 -1.24862 -1.65702 -2.18809 -2.71714 -3.0996 -3.2689 -3.44625 -3.76572 -4.21758 -4.54876 -4.58557 -4.37314 -4.23613 -4.36736 -4.73435 -5.05725 -5.19691 -5.17154 -5.24206 -5.58465 -6.02655 -6.30157 -6.35797 -6.5452 -7.19571 -8.08725 -8.53935 -7.8789 -6.3107 -4.23096 -2.02279 0.348569 2.874 5.48433 7.94471 10.0675 11.9975 14.0614 16.3738 18.8326 21.2761 23.3805 24.8376 25.5239 25.8563 26.0365 25.9371 25.3578 24.6015 24.0711 23.9178 24.0669 24.5213 25.0965 25.465 25.2364 24.4079 23.3426 22.6342 22.6104 23.0563 23.5265 23.6745 23.4895 23.0179 22.282 21.3558 20.4532 19.8288 19.4527 19.0526 18.3666 17.3732 16.2829 15.4158 14.942 14.8758 15.1797 15.8803 16.9191 18.024 18.8596 19.239 19.1925 18.889 18.4097 17.7707 16.8244 15.5908 14.0916 12.4958 10.9505 9.68551 8.58732 7.30406 5.55732 3.50924 1.46635 -0.362866 -1.86483 -3.09053 -4.03309 -4.64924 -4.776 -4.58053 -4.38748 -4.31755 -4.26002 -4.10079 -3.92405 -3.79299 -3.70372 -3.61922 -3.48645 -3.29488 -2.98175 -2.52567 -1.9951 -1.46471 -1.00474 -0.607494 -0.285961 0
0 -0.773089 -1.17713 -1.18663 -1.09963 -1.17151 -1.41339 -1.75442 -2.20191 -2.69717 -3.07547 -3.25894 -3.42001 -3.72341 -4.13815 -4.42186 -4.40716 -4.16894 -4.0515 -4.31301 -4.88222 -5.44472 -5.7342 -5.78564 -5.92019 -6.3132 -6.73368 -6.84434 -6.6265 -6.46719 -6.81005 -7.53328 -7.925 -7.25574 -5.63003 -3.4824 -1.20788 1.16581 3.65541 6.22662 8.65739 10.8096 12.8705 15.1375 17.6585 20.2457 22.7096 24.7559 26.067 26.5296 26.5635 26.4389 26.0694 25.2892 24.4442 23.8931 23.6176 23.4652 23.5196 23.7993 24.0678 23.9042 23.1831 22.1519 21.3529 21.1297 21.3213 21.5388 21.5524 21.345 20.9107 20.1888 19.2499 18.3591 17.7735 17.4854 17.219 16.6994 15.8889 14.9644 14.1654 13.6646 13.506 13.7419 14.379 15.288 16.1364 16.6157 16.6964 16.5459 16.3363 16.0385 15.6035 14.9718 14.1441 13.0449 11.6757 10.1801 8.87783 7.81939 6.70196 5.20831 3.44318 1.7001 0.127812 -1.24679 -2.45554 -3.4798 -4.26104 -4.68376 -4.88901 -5.06746 -5.24156 -5.23722 -5.03403 -4.76902 -4.56426 -4.39563 -4.18856 -3.91242 -3.59413 -3.23074 -2.77903 -2.24999 -1.69919 -1.19598 -0.748144 -0.360008 0
0 -0.688468 -1.0635 -1.13343 -1.12114 -1.23027 -1.42865 -1.68801 -2.04685 -2.4475 -2.81165 -3.02028 -3.2316 -3.53003 -3.91877 -4.2029 -4.21351 -4.03897 -3.95076 -4.21714 -4.80046 -5.41052 -5.80935 -6.00225 -6.22622 -6.60072 -6.94349 -7.04405 -6.88857 -6.76768 -6.99298 -7.42861 -7.48717 -6.56832 -4.84971 -2.69268 -0.420721 1.92433 4.37794 6.87473 9.29844 11.5347 13.7427 16.1646 18.7977 21.4666 23.9112 25.8612 27.0025 27.2278 26.9609 26.5398 25.9981 25.2041 24.4362 23.8864 23.513 23.1132 22.8177 22.6802 22.6388 22.346 21.676 20.7375 19.9407 19.5504 19.4786 19.4726 19.3613 19.1471 18.783 18.1828 17.4005 16.62 16.088 15.8103 15.5809 15.1529 14.4719 13.6754 12.9984 12.5321 12.3701 12.5196 12.9917 13.5953 14.0651 14.2304 14.1278 13.9709 13.8321 13.6521 13.3526 12.9594 12.5274 11.8531 10.8459 9.51603 8.21028 7.08973 6.049 4.80366 3.35408 1.88049 0.500579 -0.779449 -1.97433 -3.043 -3.96209 -4.67192 -5.26188 -5.77347 -6.12026 -6.15034 -5.91585 -5.57837 -5.26193 -4.95971 -4.63074 -4.25146 -3.844 -3.43418 -2.97094 -2.46481 -1.88368 -1.32764 -0.798005 -0.373535 0
0 -0.409107 -0.63953 -0.723721 -0.808323 -0.973809 -1.18234 -1.40637 -1.66455 -1.94272 -2.21799 -2.46868 -2.72423 -3.01842 -3.38464 -3.7125 -3.81073 -3.65958 -3.51277 -3.68662 -4.19847 -4.85185 -5.4153 -5.82675 -6.14583 -6.41682 -6.63246 -6.76257 -6.82845 -6.94929 -7.24973 -7.50188 -7.22817 -6.07763 -4.26845 -2.13404 0.105245 2.40868 4.74065 7.10015 9.4781 11.8241 14.1756 16.6898 19.4357 22.2134 24.6827 26.4394 27.2592 27.1439 26.5834 25.9586 25.3673 24.7247 24.1472 23.7323 23.391 22.9565 22.4392 21.931 21.4695 20.9259 20.1984 19.3268 18.519 17.9778 17.7117 17.6027 17.5279 17.4303 17.2491 16.8704 16.2899 15.6497 15.1609 14.8539 14.5749 14.1001 13.4127 12.6455 11.9738 11.501 11.3007 11.4135 11.7437 12.0525 12.1365 11.9907 11.758 11.5743 11.4484 11.3305 11.2129 11.1184 11.0195 10.7129 10.0165 8.86396 7.51365 6.24411 5.17977 4.16294 3.03767 1.78062 0.45164 -0.87759 -2.12121 -3.22077 -4.21329 -5.11506 -5.91132 -6.51621 -6.87261 -6.90675 -6.68316 -6.30554 -5.88794 -5.45895 -5.0236 -4.58312 -4.13655 -3.67599 -3.17308 -2.59999 -1.9084 -1.16553 -0.519877 -0.144238 0
0 -0.0959229 -0.113891 -0.123931 -0.171744 -0.334739 -0.558495 -0.799526 -1.03497 -1.21327 -1.43412 -1.67099 -1.95837 -2.23669 -2.61985 -3.04688 -3.15267 -2.81993 -2.36167 -2.31209 -2.79519 -3.63732 -4.56532 -5.30943 -5.76172 -5.91417 -5.97407 -6.08391 -6.30311 -6.62413 -7.05662 -7.30502 -6.96048 -5.78528 -4.03715 -2.01615 0.118683 2.25515 4.39085 6.52477 8.82078 11.2452 13.7264 16.3773 19.3105 22.3111 24.7873 26.217 26.5097 25.9144 25.0558 24.3086 23.7953 23.3668 23.0833 22.9558 22.8711 22.5956 22.0486 21.3202 20.558 19.7892 18.9608 18.0634 17.2048 16.5467 16.2017 16.1616 16.3208 16.5553 16.7247 16.6251 16.2304 15.6492 15.1911 14.8719 14.5238 13.8626 12.9555 11.9671 11.1161 10.4779 10.2344 10.3738 10.6989 10.8463 10.6196 10.1716 9.72755 9.45112 9.2607 9.19416 9.29076 9.50911 9.74526 9.66633 9.12627 7.95384 6.41961 4.89759 3.74993 2.94493 2.1512 1.10555 -0.22796 -1.69415 -3.0311 -4.13211 -5.09221 -6.0015 -6.73387 -7.14143 -7.30632 -7.32953 -7.21131 -6.91502 -6.48373 -5.98521 -5.47664 -5.00429 -4.52339 -4.03186 -3.46219 -2.78187 -1.86637 -0.825268 0.00234544 0.249967 0
0 0.212181 0.402607 0.558658 0.635283 0.548888 0.311465 0.00280511 -0.277943 -0.483172 -0.682662 -0.93019 -1.20271 -1.49258 -1.93973 -2.42831 -2.47454 -1.81034 -0.895052 -0.476205 -0.873938 -1.97996 -3.39047 -4.6037 -5.27077 -5.3818 -5.29799 -5.30483 -5.52257 -5.90893 -6.42177 -6.77018 -6.56594 -5.57663 -4.0205 -2.18748 -0.278292 1.62175 3.46113 5.3492 7.49508 9.94739 12.5686 15.3861 18.4979 21.5844 23.9806 25.0992 25.0096 24.07 22.9466 22.0929 21.6324 21.439 21.4721 21.7037 21.9236 21.847 21.3667 20.5861 19.7123 18.8245 17.9019 16.9506 16.0554 15.3815 15.0466 15.138 15.5943 16.2492 16.8534 17.1206 16.945 16.4624 16.028 15.6944 15.214 14.2686 12.9754 11.6234 10.4626 9.66221 9.36378 9.52865 9.80853 9.78792 9.30564 8.56175 7.88193 7.45718 7.25219 7.26997 7.55843 8.06925 8.58681 8.71474 8.17692 6.82227 4.94296 3.07406 1.76095 1.08249 0.620325 -0.118199 -1.32044 -2.80804 -4.22228 -5.33222 -6.2101 -6.94734 -7.40282 -7.45878 -7.36259 -7.37275 -7.46014 -7.39941 -7.08947 -6.59707 -6.03718 -5.48727 -4.9474 -4.39379 -3.79456 -3.03712 -1.96685 -0.711137 0.24513 0.442173 0
0 0.496661 0.908169 1.213 1.42188 1.4167 1.19361 0.864572 0.522136 0.242933 -0.0163571 -0.290339 -0.619903 -1.00851 -1.56432 -2.07505 -2.01893 -1.11398 0.173188 1.01938 0.865092 -0.319634 -2.13053 -3.81327 -4.84079 -5.05936 -4.89993 -4.74195 -4.84258 -5.18598 -5.71188 -6.12137 -6.06714 -5.30839 -4.01463 -2.4826 -0.908657 0.618557 2.13874 3.75785 5.75971 8.21385 10.9804 13.9476 17.0279 19.9003 22.0537 23.1168 23.0774 22.1474 20.9338 19.9782 19.5819 19.646 20.0165 20.4975 20.8353 20.7873 20.3292 19.6023 18.7486 17.8248 16.8278 15.8534 15.0198 14.4567 14.2387 14.4788 15.1902 16.1932 17.1863 17.8266 17.976 17.6779 17.2969 16.8468 16.1207 14.8068 13.1029 11.3606 9.95964 9.06641 8.76567 8.84553 8.91556 8.63302 7.89862 6.95069 6.09311 5.61608 5.46191 5.58384 5.97706 6.6139 7.3568 7.68337 7.21505 5.68091 3.47339 1.24011 -0.334589 -1.0517 -1.30151 -1.69362 -2.56345 -3.87668 -5.24161 -6.35861 -7.10328 -7.53017 -7.58257 -7.32091 -7.04763 -7.08585 -7.38553 -7.61885 -7.52969 -7.12823 -6.55022 -5.94527 -5.30454 -4.68455 -4.05251 -3.31916 -2.29386 -1.08089 -0.11887 0.215822 0
0 0.802791 1.4273 1.83155 2.03691 2.02452 1.85577 1.59432 1.2814 0.925908 0.566934 0.201086 -0.224889 -0.758286 -1.40909 -1.89489 -1.77809 -0.823166 0.564185 1.62468 1.71447 0.624051 -1.27607 -3.24877 -4.59961 -5.03949 -4.86617 -4.55211 -4.48211 -4.72032 -5.17479 -5.56959 -5.5821 -5.00874 -3.98917 -2.78805 -1.6316 -0.537347 0.590575 1.97664 3.82686 6.241 9.08654 12.1085 14.9685 17.3961 19.3397 20.6143 20.9961 20.371 19.2428 18.3499 18.1441 18.5631 19.2286 19.7529 19.8957 19.6029 19.0436 18.3623 17.5797 16.6306 15.5931 14.6642 13.967 13.5856 13.5477 14.0278 15.0371 16.3696 17.6649 18.6041 19.0322 18.9008 18.4543 17.7492 16.6628 14.9961 12.9725 11.0017 9.45309 8.52652 8.15277 8.04517 7.81989 7.25461 6.32701 5.23203 4.30856 3.86922 3.87107 4.14428 4.59649 5.29647 6.16503 6.70474 6.35556 4.79234 2.41048 -0.0636387 -1.89052 -2.79133 -3.03341 -3.19182 -3.75349 -4.80902 -6.04136 -7.03225 -7.5329 -7.55627 -7.24033 -6.78701 -6.49067 -6.58546 -7.01789 -7.46839 -7.58156 -7.27671 -6.74909 -6.15241 -5.49292 -4.7877 -4.1229 -3.46854 -2.6525 -1.66521 -0.758018 -0.214447 0
0 1.05823 1.84077 2.25035 2.37727 2.33988 2.27518 2.18842 1.97946 1.58833 1.11961 0.638142 0.101708 -0.550245 -1.27659 -1.75008 -1.67108 -0.851743 0.31481 1.22129 1.31905 0.424661 -1.25285 -3.13587 -4.58965 -5.19182 -5.0611 -4.66117 -4.42507 -4.50633 -4.81725 -5.13808 -5.18761 -4.78327 -4.03452 -3.17355 -2.44009 -1.82495 -1.07465 0.0949193 1.80402 4.06429 6.84812 9.81351 12.4549 14.566 16.4298 18.0297 18.8893 18.6439 17.7877 17.1733 17.3377 18.1278 18.9667 19.3521 19.1086 18.4266 17.6693 17 16.2637 15.294 14.2113 13.3694 12.8454 12.6844 12.9188 13.7674 15.2017 16.9092 18.4814 19.5962 20.1143 19.9034 19.1964 18.0924 16.6136 14.6416 12.4414 10.3825 8.77598 7.75133 7.19978 6.84662 6.3809 5.66258 4.63853 3.49166 2.55434 2.23517 2.44321 2.90602 3.46021 4.21291 5.18079 5.854 5.66191 4.21093 1.91262 -0.553308 -2.49085 -3.64179 -4.08292 -4.3117 -4.78137 -5.67603 -6.66566 -7.33544 -7.45388 -7.1353 -6.59166 -6.09265 -5.83561 -5.96483 -6.43187 -6.96904 -7.19609 -6.98415 -6.56524 -6.12463 -5.561 -4.81657 -4.08992 -3.51007 -2.88912 -2.08048 -1.20116 -0.495099 0
0 1.15384 1.98248 2.38065 2.496 2.52083 2.61699 2.72204 2.64756 2.25679 1.69528 1.10428 0.464565 -0.276154 -1.05354 -1.59974 -1.66297 -1.161 -0.422637 0.0685542 -0.0102003 -0.744616 -2.0038 -3.49647 -4.72485 -5.29815 -5.22127 -4.8282 -4.50567 -4.43069 -4.58329 -4.81436 -4.8926 -4.6556 -4.13937 -3.56174 -3.18259 -2.94323 -2.5119 -1.55847 -0.0661383 1.97751 4.54712 7.35854 9.87022 11.9031 13.8434 15.7036 16.947 17.1002 16.6361 16.4001 16.8567 17.7969 18.634 18.8444 18.3341 17.3878 16.4556 15.7219 14.9761 13.976 12.8699 12.0911 11.7729 11.9197 12.537 13.8041 15.6037 17.6138 19.4413 20.7104 21.1822 20.7044 19.5802 18.0324 16.1836 14.0021 11.7087 9.6308 7.96674 6.78748 5.9768 5.34423 4.66241 3.82965 2.76562 1.61259 0.758638 0.610093 1.04694 1.73226 2.46838 3.35845 4.40534 5.17171 5.10198 3.85607 1.82158 -0.412256 -2.30513 -3.63443 -4.41668 -4.92814 -5.54032 -6.31406 -6.97021 -7.20254 -6.98794 -6.48438 -5.9046 -5.44125 -5.23591 -5.37637 -5.81796 -6.35022 -6.626 -6.51532 -6.28081 -6.0697 -5.69709 -4.98943 -4.20275 -3.59508 -3.04537 -2.29967 -1.40939 -0.619722 0
0 0.96023 1.71564 2.19606 2.4775 2.6858 2.95145 3.20305 3.22801 2.86118 2.27653 1.61718 0.907776 0.0830689 -0.773981 -1.42318 -1.71353 -1.60899 -1.36385 -1.2934 -1.52301 -2.10784 -2.95867 -3.97009 -4.81505 -5.24203 -5.20041 -4.90395 -4.57655 -4.39695 -4.40893 -4.52346 -4.57488 -4.41995 -4.07948 -3.76506 -3.67004 -3.68722 -3.47066 -2.77897 -1.57337 0.177646 2.48817 5.06801 7.50353 9.62509 11.7261 13.7613 15.2509 15.7598 15.6895 15.7126 16.2134 17.0073 17.6766 17.821 17.3258 16.3875 15.3984 14.5593 13.7576 12.7715 11.6966 10.9772 10.8686 11.4256 12.5059 14.0861 16.0095 18.0654 20.0041 21.3789 21.8052 21.0779 19.5918 17.7014 15.6494 13.3971 11.0975 8.97096 7.18099 5.8201 4.75636 3.86779 2.96974 2.00773 0.896076 -0.200813 -0.894227 -0.838297 -0.200742 0.653489 1.55643 2.55996 3.68289 4.51447 4.572 3.53924 1.80678 -0.134329 -1.85886 -3.26683 -4.32887 -5.16794 -5.91733 -6.50109 -6.78953 -6.69397 -6.34306 -5.84126 -5.31519 -4.91399 -4.75725 -4.92387 -5.34254 -5.81378 -6.08544 -6.11854 -6.12697 -6.15348 -5.94901 -5.31175 -4.49946 -3.81259 -3.19627 -2.41927 -1.50039 -0.668569 0
0 0.524697 1.16052 1.84694 2.40466 2.77155 3.10225 3.42558 3.54261 3.26383 2.75885 2.16953 1.44093 0.480739 -0.530957 -1.30676 -1.72429 -1.87771 -1.94195 -2.0701 -2.33533 -2.80396 -3.43987 -4.13766 -4.68653 -4.97108 -4.99405 -4.81532 -4.55467 -4.32789 -4.22194 -4.18943 -4.09429 -3.86534 -3.60389 -3.54394 -3.76148 -4.0209 -3.99597 -3.53597 -2.64272 -1.21474 0.754149 3.06967 5.38346 7.59145 9.83887 12.0005 13.6419 14.3915 14.5503 14.6451 15.0043 15.5315 16.0179 16.1916 15.8919 15.1133 14.152 13.2414 12.3992 11.4829 10.5307 9.92998 10.0533 11.0298 12.5344 14.2715 16.1014 18.0034 19.8362 21.152 21.519 20.7001 19.1133 17.1856 15.1831 13.0407 10.7647 8.51198 6.50699 4.92853 3.69289 2.64393 1.63606 0.620829 -0.485444 -1.50017 -2.02722 -1.78907 -1.0241 -0.104132 0.81079 1.81058 2.93416 3.82182 3.98122 3.09994 1.55238 -0.155869 -1.69521 -3.02575 -4.19468 -5.17395 -5.89947 -6.2346 -6.27003 -6.0986 -5.79237 -5.32945 -4.81552 -4.44568 -4.38595 -4.66976 -5.1163 -5.47761 -5.63011 -5.71896 -5.93481 -6.15013 -6.02836 -5.42735 -4.64277 -3.93895 -3.25121 -2.39708 -1.4517 -0.634649 0
0 0.102312 0.65144 1.57457 2.37584 2.76856 2.99105 3.28951 3.49311 3.36984 3.10674 2.77416 2.16136 1.04019 -0.214041 -1.11955 -1.54468 -1.69479 -1.74704 -1.80256 -1.9576 -2.39548 -3.05672 -3.74701 -4.2542 -4.54579 -4.67118 -4.61758 -4.41781 -4.15289 -3.95599 -3.76659 -3.47034 -3.04978 -2.75306 -2.88968 -3.40935 -3.94942 -4.10204 -3.8144 -3.16918 -2.15068 -0.637046 1.31447 3.44759 5.63594 7.94203 10.1893 11.897 12.7082 12.8785 12.8995 13.1061 13.4588 13.8756 14.1318 14.0009 13.3338 12.3997 11.4719 10.668 9.86891 9.11493 8.71298 9.10396 10.4017 12.1584 13.9055 15.5567 17.2299 18.7982 19.8476 20.0657 19.3203 17.9766 16.3598 14.6868 12.7698 10.5493 8.1552 5.91448 4.16707 2.83318 1.77627 0.815438 -0.0756165 -1.04575 -1.9422 -2.34221 -2.01136 -1.23097 -0.414905 0.340155 1.16789 2.20577 3.10687 3.31737 2.4763 0.962754 -0.663162 -2.03967 -3.19477 -4.2183 -5.06007 -5.58003 -5.70639 -5.69719 -5.67681 -5.52899 -5.06952 -4.45331 -4.04895 -4.07535 -4.51476 -5.01398 -5.24043 -5.19357 -5.19916 -5.45765 -5.75344 -5.63935 -5.06466 -4.37227 -3.79411 -3.14542 -2.22443 -1.24558 -0.493192 0
0 0.0199515 0.603894 1.67615 2.57469 2.87373 2.88961 3.05033 3.29812 3.41289 3.5306 3.61085 3.20524 1.99413 0.461268 -0.663208 -1.12431 -1.12724 -0.915938 -0.67069 -0.671391 -1.14936 -2.02006 -2.93181 -3.60377 -4.01576 -4.26633 -4.31972 -4.18221 -3.90943 -3.63596 -3.33589 -2.88611 -2.32314 -1.96646 -2.14608 -2.77599 -3.43848 -3.7272 -3.56539 -3.15393 -2.54532 -1.58995 -0.127691 1.68445 3.73963 6.01801 8.27776 9.97472 10.7247 10.7978 10.6988 10.782 11.0868 11.5498 11.9258 11.8938 11.2722 10.3316 9.41503 8.67624 8.0402 7.50138 7.34483 7.93916 9.38727 11.1856 12.8538 14.344 15.7729 17.0118 17.7289 17.8175 17.2961 16.4401 15.3817 14.1183 12.4042 10.1844 7.66676 5.30316 3.47271 2.13816 1.1288 0.303185 -0.382365 -1.12494 -1.82802 -2.12737 -1.78242 -1.09299 -0.438993 0.0999635 0.736085 1.6237 2.45718 2.64088 1.7656 0.196156 -1.44246 -2.7345 -3.66738 -4.37848 -4.89391 -5.16123 -5.22344 -5.34794 -5.58603 -5.59544 -5.09513 -4.3009 -3.73646 -3.73607 -4.21618 -4.71409 -4.86431 -4.70551 -4.60713 -4.76816 -4.99282 -4.90952 -4.44432 -3.94015 -3.56877 -3.04567 -2.14632 -1.15413 -0.433707 0
0 0.339836 1.1078 2.19895 3.01426 3.17157 2.96348 2.90348 3.10642 3.46432 3.99729 4.47129 4.351 3.23441 1.57522 0.183418 -0.458899 -0.376617 0.126131 0.644568 0.747513 0.194066 -0.871252 -1.99616 -2.87953 -3.4538 -3.82985 -3.96986 -3.86518 -3.5746 -3.24687 -2.88856 -2.41644 -1.86747 -1.51003 -1.61251 -2.10756 -2.67773 -2.9823 -2.94216 -2.71411 -2.39835 -1.89637 -0.997375 0.317662 2.07399 4.20849 6.40084 8.02855 8.7126 8.68578 8.4588 8.41629 8.6917 9.22284 9.72259 9.79274 9.24382 8.33041 7.41192 6.72495 6.22431 5.90971 5.94201 6.62622 7.99971 9.66582 11.2072 12.5351 13.6936 14.5735 15.0374 15.1325 14.9285 14.6258 14.1008 13.2228 11.6473 9.45889 6.95323 4.61911 2.85316 1.57298 0.657149 -0.0594424 -0.573002 -1.09652 -1.58192 -1.77141 -1.47013 -0.930842 -0.418214 -0.000226123 0.527556 1.27907 1.97288 2.02827 1.08627 -0.539699 -2.19613 -3.39292 -4.08311 -4.40637 -4.5827 -4.67369 -4.8313 -5.18131 -5.64007 -5.77899 -5.29121 -4.3577 -3.56681 -3.31544 -3.6094 -4.00888 -4.1765 -4.10536 -4.03619 -4.09145 -4.19702 -4.10848 -3.81072 -3.53044 -3.37688 -3.03808 -2.26034 -1.30274 -0.523759 0
0 0.729277 1.67149 2.67291 3.31353 3.32686 2.95863 2.69489 2.81545 3.32971 4.1277 4.86927 5.02379 4.20169 2.65032 1.10518 0.291215 0.424428 1.09797 1.6639 1.63784 0.940533 -0.161891 -1.31138 -2.25819 -2.95076 -3.41361 -3.57186 -3.44026 -3.11047 -2.75336 -2.39061 -1.93657 -1.44325 -1.11793 -1.17207 -1.57138 -2.0611 -2.35116 -2.33577 -2.12633 -1.8452 -1.56907 -1.18349 -0.526604 0.669621 2.46729 4.51876 6.15703 6.90284 6.87554 6.52798 6.31193 6.46323 6.97596 7.55281 7.76007 7.37539 6.57648 5.70568 5.02777 4.61659 4.44536 4.61676 5.28051 6.46686 7.88281 9.22237 10.3511 11.2182 11.8043 12.1146 12.2977 12.4135 12.5166 12.389 11.772 10.3858 8.34993 5.99889 3.83196 2.1916 1.04859 0.263148 -0.287497 -0.622741 -0.950841 -1.28004 -1.43163 -1.23377 -0.843274 -0.429368 -0.044676 0.430906 1.04308 1.54346 1.43897 0.429923 -1.14489 -2.6478 -3.6136 -3.98818 -3.99495 -3.93193 -4.01836 -4.35793 -4.90928 -5.47047 -5.68314 -5.28352 -4.36939 -3.39138 -2.83593 -2.84231 -3.10921 -3.32778 -3.40352 -3.43565 -3.47975 -3.46627 -3.2863 -2.99521 -2.84231 -2.90388 -2.86033 -2.34833 -1.47851 -0.63969 0
0 0.828982 1.73697 2.59312 3.04728 2.97998 2.55334 2.21667 2.259 2.7363 3.51765 4.29043 4.65468 4.23533 3.04389 1.65119 0.873791 1.09483 1.79574 2.1487 1.81605 0.971789 -0.0209244 -0.958888 -1.7941 -2.48942 -2.95388 -3.05791 -2.82869 -2.46097 -2.11645 -1.78435 -1.34225 -0.84067 -0.520516 -0.647084 -1.15762 -1.76208 -2.08935 -2.0021 -1.58917 -1.12753 -0.859312 -0.830705 -0.814387 -0.316942 0.937054 2.75562 4.42026 5.31962 5.37355 4.9625 4.54675 4.48686 4.85145 5.42796 5.75465 5.57594 4.96463 4.20493 3.57973 3.17988 3.06394 3.27535 3.91093 4.91323 6.04969 7.09933 7.95516 8.57697 8.94787 9.14053 9.34649 9.59569 9.88911 9.91761 9.53901 8.48795 6.85542 4.8682 2.96897 1.54764 0.594578 0.0220413 -0.296267 -0.395411 -0.534499 -0.797793 -1.01614 -0.947759 -0.687609 -0.34058 -0.0353132 0.33661 0.758632 1.09515 0.86447 -0.115163 -1.49297 -2.6204 -3.18566 -3.24904 -3.06862 -2.96125 -3.12804 -3.60008 -4.20263 -4.7118 -4.9458 -4.72504 -4.00237 -3.04011 -2.3242 -2.15459 -2.32072 -2.52274 -2.6362 -2.7217 -2.78969 -2.69652 -2.34397 -1.86658 -1.66799 -1.92217 -2.22216 -2.03517 -1.35228 -0.585487 0
0 0.600339 1.27434 1.89549 2.22015 2.14272 1.81433 1.54355 1.52722 1.83058 2.37633 2.98812 3.3987 3.30158 2.57665 1.57771 1.05607 1.36253 1.95801 2.05832 1.49848 0.641566 -0.146621 -0.796412 -1.37706 -1.9166 -2.26508 -2.26777 -2.01553 -1.69244 -1.42045 -1.14584 -0.728595 -0.226662 0.0676193 -0.143413 -0.778484 -1.49163 -1.86806 -1.70963 -1.12318 -0.502922 -0.228306 -0.390115 -0.740505 -0.769091 -0.0559026 1.35596 2.83989 3.74465 3.88 3.49276 2.99441 2.75198 2.93355 3.39642 3.76998 3.75623 3.35856 2.7964 2.29868 1.95254 1.81129 1.99154 2.54436 3.36327 4.20286 4.91203 5.4755 5.88012 6.10338 6.19315 6.32763 6.56878 6.83467 6.91693 6.71359 6.07879 4.97186 3.49777 2.03488 0.934248 0.248632 -0.100733 -0.195079 -0.094923 -0.0672828 -0.280683 -0.570981 -0.631294 -0.449179 -0.187783 0.000972182 0.173994 0.410992 0.601149 0.371595 -0.424089 -1.42404 -2.08093 -2.25227 -2.10642 -1.91316 -1.86938 -2.10654 -2.56517 -3.05864 -3.41411 -3.60537 -3.54168 -3.09783 -2.35337 -1.72784 -1.54024 -1.65271 -1.7732 -1.82513 -1.88591 -1.94621 -1.82669 -1.37508 -0.761962 -0.494666 -0.809417 -1.29657 -1.35838 -0.942118 -0.416343 0
0 0.280273 0.617772 0.958325 1.12471 1.09609 0.927997 0.791152 0.757764 0.872029 1.12577 1.44683 1.71548 1.75294 1.4386 0.949461 0.712741 0.946755 1.29188 1.26791 0.841315 0.279873 -0.170875 -0.502439 -0.790814 -1.07248 -1.2415 -1.21088 -1.0436 -0.862155 -0.708812 -0.543617 -0.276706 0.052354 0.237494 0.0656086 -0.394622 -0.910844 -1.1816 -1.06865 -0.61014 -0.145981 0.0417399 -0.109687 -0.424715 -0.57622 -0.278161 0.50905 1.39707 1.97782 2.08966 1.85636 1.50724 1.29327 1.34056 1.60177 1.85234 1.89672 1.70037 1.39294 1.12186 0.906656 0.797904 0.883307 1.23041 1.72355 2.18909 2.55536 2.83157 3.03611 3.13515 3.15304 3.20557 3.32695 3.47786 3.52253 3.45673 3.18397 2.63805 1.85199 1.03866 0.431156 0.067974 -0.0874247 -0.0838598 0.0402968 0.11457 -0.00430452 -0.225423 -0.305951 -0.20346 -0.0444399 0.0178113 0.064149 0.144378 0.239159 0.0958836 -0.342673 -0.860647 -1.12677 -1.11404 -0.96395 -0.8613 -0.875396 -1.05471 -1.33341 -1.60079 -1.76881 -1.87376 -1.88123 -1.69189 -1.30106 -0.946711 -0.839181 -0.8958 -0.944371 -0.941748 -0.9552 -0.995098 -0.90684 -0.589485 -0.148696 0.0550808 -0.155884 -0.505084 -0.612338 -0.446136 -0.200961 0
0 0 0 0 0 0 0 0 0 0 0 0 0 0 0 0 0 0 0 0 0 0 0 0 0 0 0 0 0 0 0 0 0 0 0 0 0 0 0 0 0 0 0 0 0 0 0 0 0 0 0 0 0 0 0 0 0 0 0 0 0 0 0 0 0 0 0 0 0 0 0 0 0 0 0 0 0 0 0 0 0 0 0 0 0 0 0 0 0 0 0 0 0 0 0 0 0 0 0 0 0 0 0 0 0 0 0 0 0 0 0 0 0 0 0 0 0 0 0 0 0 0 0 0 0 0 0 0 0
