ncols 256
nrows 47
xllcorner 0
yllcorner 1820
cellsize 10
23.2605 18.521 13.7816 9.04207 11.8362 14.6303 17.4244 20.2185 27.7874 35.3563 42.9252 50.4941 47.3761 44.2582 41.1402 38.0222 39.2269 40.4316 41.6363 42.8409 38.9214 35.0018 31.0823 27.1627 26.0089 24.855 23.7012 22.5474 16.8774 11.2075 5.53756 -0.132368 1.06121 2.25479 3.44836 4.64194 2.27549 -0.0909648 -2.45742 -4.82387 -4.08491 -3.34596 -2.60701 -1.86806 -0.890141 0.087774 1.06569 2.0436 -1.19259 -4.42879 -7.66498 -10.9012 -8.63663 -6.37208 -4.10753 -1.84298 2.32936 6.5017 10.674 14.8464 16.6478 18.4491 20.2505 22.0519 21.374 20.696 20.0181 19.3402 21.7467 24.1532 26.5597 28.9662 28.9556 28.9451 28.9345 28.9239 30.919 32.9141 34.9093 36.9044 39.6046 42.3047 45.0049 47.7051 49.3319 50.9587 52.5854 54.2122 55.8689 57.5256 59.1822 60.8389 61.0891 61.3394 61.5897 61.8399 65.7962 69.7525 73.7088 77.6651 78.7678 79.8704 80.9731 82.0757 85.5948 89.1139 92.633 96.1521 95.8443 95.5365 95.2288 94.921 97.1234 99.3258 101.528 103.731 106.16 108.59 111.02 113.45 115.522 117.593 119.664 121.736 126.281 130.826 135.37 139.915 141.267 142.62 143.972 145.324 141.873 138.422 134.972 131.521 130.844 130.168 129.491 128.815 126.473 124.132 121.79 119.449 114.396 109.344 104.291 99.2387 102.017 104.796 107.574 110.353 112.611 114.869 117.128 119.386 118.317 117.249 116.18 115.111 119.294 123.477 127.659 131.842 129.562 127.282 125.002 122.722 121.902 121.082 120.263 119.443 121.361 123.28 125.198 127.117 125.975 124.834 123.692 122.551 126.069 129.588 133.107 136.626 141.662 146.698 151.733 156.769 156.496 156.222 155.949 155.676 165.786 175.896 186.005 196.115 195.213 194.311 193.409 192.507 195.127 197.748 200.369 202.99 208.42 213.85 219.28 224.709 226.521 228.333 230.145 231.956 236.639 241.322 246.005 250.688 250.821 250.954 251.087 251.22 254.507 257.794 261.081 264.369 263.713 263.058 262.402 261.747 264.009 266.271 268.534 270.796 271.67 272.544 273.418 274.292 274.449 274.606 274.763 274.92 274.289 273.658 273.027 272.396 273.454 274.512 275.57 276.628 277.881 279.134 280.386 281.639 282.229 282.82 283.41 284
26.3323 23.3066 16.9572 13.634 14.8814 14.1281 16.6604 20.8687 25.6642 30.7513 35.3952 42.4278 39.769 35.0346 33.1284 31.9263 35.8763 36.6017 35.427 34.3928 32.1912 28.1688 24.7693 21.4865 19.9167 17.3077 17.023 16.8774 12.0086 7.00243 2.79274 -1.27995 1.79135 0.248014 3.75212 2.95022 0.629782 -0.630702 -3.75435 -3.4997 -4.33901 -4.60381 -3.71737 -0.633402 0.453777 -0.298139 0.456511 2.94978 0.419526 1.00916 -3.88391 -6.10937 -3.09616 -0.424251 0.0255659 1.33372 3.46388 5.07344 8.46464 14.5002 14.5323 16.2047 18.0144 20.5538 18.9714 22.3052 20.6505 19.7981 21.0963 24.9295 25.2352 28.2958 28.2448 29.9204 29.5797 29.5422 30.4449 32.6721 34.3881 36.8057 41.7427 43.346 45.6037 46.1844 46.9757 48.2779 51.3584 52.3429 52.9257 55.6626 57.1068 58.591 59.6583 62.4351 63.0629 60.6199 65.3097 67.7304 71.6526 75.1344 75.7853 78.6312 78.8892 81.0879 82.6124 83.3219 87.5947 94.2907 92.7164 95.0948 92.8009 96.0129 98.9954 100.349 105.262 105.266 108.558 108.717 109.485 115.201 117.227 116.894 120.323 124.061 126.68 130.672 135.789 140.341 140.697 142.925 145.08 143.369 140.491 137.561 135.101 131.987 133.727 130.76 129.943 128.929 125.81 123.878 122.27 120.876 115.464 111.696 107.165 104.69 107.415 108.503 109.415 111.997 113.531 113.752 113.947 117.743 114.781 112.566 112.103 113.508 119.065 122.79 127.156 127.362 124.332 122.478 122.977 121.828 120.868 120.272 121.682 120.674 121.886 124.979 128.027 127.736 128.442 125.539 126.979 125.617 126.358 129.354 134.366 137.48 143.038 147.857 151.54 153.892 153.863 153.191 154.449 154.379 162.888 171.221 180.82 188.447 189.051 188.006 189.197 189.48 192.19 194.755 199.014 201.081 205.984 209.83 215.628 221.11 227.014 227.365 228.256 230.284 233.377 237.537 242.509 248.072 248.034 249.59 250.456 252.21 258.269 261.37 263.842 265.81 265.032 264.353 264.273 264.402 264.84 265.337 268.994 271.747 270.725 271.985 274.686 274.928 275.093 275.409 275.398 275.957 272.967 273.235 276.236 274.622 275.016 278.061 279.186 278.355 278.202 282.108 281.923 282.671 285.789 283.206 283.95 285
29.046 28.0921 23.159 18.2259 15.9259 13.6259 17.5724 21.5189 23.8326 26.1464 30.254 34.3615 30.0863 25.811 25.8207 25.8304 29.3012 32.7719 29.3583 25.9446 23.6402 21.3358 18.5731 15.8103 12.7854 9.7604 10.4839 11.2075 7.00243 2.79737 0.184919 -2.42754 -2.09315 -1.75876 -0.250132 1.25849 0.0440271 -1.17044 -1.67299 -2.17553 -4.01859 -5.86166 -2.6302 0.60125 -0.0414007 -0.684052 1.58595 3.85596 5.15154 6.44711 2.56478 -1.31756 2.10301 5.52358 5.017 4.51042 4.0778 3.64518 8.89958 14.154 14.0571 13.9602 16.5079 19.0556 21.485 23.9144 22.0852 20.256 22.9809 25.7059 26.6656 27.6253 29.2606 30.8958 30.5282 30.1605 31.2953 32.4301 34.5686 36.707 40.5472 44.3874 44.5255 44.6636 45.1304 45.5972 48.0354 50.4735 52.1366 53.7997 55.0714 56.3431 59.937 63.5308 61.4654 59.3999 62.5541 65.7082 69.1559 72.6036 74.9978 77.392 78.746 80.1 78.8149 77.5298 84.9795 92.4293 93.5412 94.6531 95.8789 97.1048 99.2388 101.373 104.087 106.801 107.822 108.843 112.897 116.951 116.573 116.194 121.29 126.386 128.452 130.518 135.642 140.766 141.998 143.23 142.321 141.413 139.057 136.7 134.577 132.454 131.903 131.353 130.198 129.044 126.334 123.624 122.964 122.304 118.176 114.048 112.094 110.141 111.175 112.21 112.925 113.641 113.138 112.634 114.367 116.1 111.991 107.883 109.894 111.905 117.005 122.104 122.493 122.882 120.278 117.674 119.304 120.934 120.198 119.461 120.684 121.906 124.292 126.678 127.516 128.355 127.3 126.245 127.464 128.683 128.902 129.12 133.727 138.333 143.675 149.017 150.017 151.016 150.588 150.161 151.621 153.081 159.814 166.547 173.663 180.779 181.24 181.7 184.077 186.453 189.107 191.761 195.467 199.173 202.491 205.809 211.66 217.51 221.953 226.396 227.504 228.612 231.182 233.752 239.604 245.456 246.841 248.226 250.713 253.2 259.072 264.945 266.099 267.252 266.45 265.648 266.353 267.058 265.73 264.403 268.551 272.699 272.062 271.425 273.494 275.564 275.887 276.211 276.603 276.994 274.903 272.812 274.83 276.848 279.229 281.609 280.845 280.081 282.581 285.082 284.392 283.703 283.648 283.593 284.797 286
32.6937 28.8985 27.5961 22.8178 22.4057 19.3702 18.8785 22.1691 22.1759 23.3353 24.4939 26.2953 23.9729 20.8724 19.3189 19.7345 20.4639 22.0577 20.9403 17.4965 15.4365 14.0445 13.9913 10.1342 9.33394 5.9616 6.90917 5.53756 3.54132 0.184919 -0.742938 -3.57512 -1.79356 -2.59129 -0.361908 -0.433229 -2.67778 -0.998257 0.1124 -0.851365 -3.76419 -2.04499 -0.413988 1.8359 1.76654 1.84269 2.9323 4.76213 6.16484 6.70715 4.27604 3.47425 5.38322 7.54426 6.55588 7.68712 8.04792 7.90394 9.40104 13.8078 14.6922 14.3603 14.0491 17.5575 18.1732 21.265 22.2053 20.714 22.9049 24.717 27.0076 26.9549 28.4765 29.8683 30.379 30.7788 29.891 33.1917 34.5673 36.6083 38.2568 41.7266 39.9314 43.1429 45.0393 44.8879 48.3295 48.6041 48.4539 51.5454 52.7212 54.0952 54.7923 58.9672 56.0836 58.1799 61.6636 63.9796 63.4417 70.0729 71.7554 75.1126 78.643 79.1121 78.9347 80.4726 82.0505 90.5679 91.0393 94.3253 93.8139 98.1967 99.5057 102.976 106.08 108.336 109.126 112.002 114.51 118.702 120.638 120.969 123.704 128.71 132.131 133.422 134.159 141.192 139.264 141.395 141.826 139.458 137.729 136.073 134.755 132.921 132.797 131.342 130.949 129.158 128.35 125.42 123.397 123.731 120.182 118.574 118.599 115.592 116.122 115.598 114.846 115.285 114.249 113.753 115.65 114.457 114.031 109.319 107.85 110.302 115.437 116.707 118.829 118.402 118.09 117.104 118.089 120.04 121.472 120.609 122.521 123.138 125.205 126.829 126.783 128.974 130.316 129.225 132.756 131.75 130.55 133.274 137.11 139.186 140.825 145.834 146.63 148.14 147.476 149.018 150.345 151.784 156.183 162.256 169.568 173.111 174.937 177.311 182.732 183.426 187.139 189.819 192.808 197.264 200.475 204.321 208.646 213.911 219.88 222.093 224.534 226.94 228.126 233.248 237.747 242.84 246.706 247.964 252.246 254.19 257.94 263.801 268.013 268.694 269.329 268.45 268.239 269.713 269.932 268.944 269.969 273.65 271.559 273.572 275.397 276.199 278.423 277.081 278.563 278.031 275.759 276.498 279.604 279.075 281.116 282.013 283.139 281.807 283.566 284.866 283.963 284.735 285.386 285.238 286.758 287
30.8524 29.7048 28.5572 27.4097 26.2621 25.1145 23.9669 22.8193 21.6717 20.5242 19.3766 18.229 17.0814 15.9338 14.7862 13.6386 12.4911 11.3435 10.1959 9.04831 7.90072 6.75314 5.60556 4.45797 3.31039 2.1628 1.01522 -0.132368 -1.27995 -2.42754 -3.57512 -4.72271 -4.07327 -3.42383 -2.77439 -2.12495 -1.47551 -0.826075 -0.176636 0.472802 1.12224 1.77168 2.42112 3.07056 3.71999 4.36943 5.01887 5.66831 6.31775 6.96719 7.61663 8.26606 8.9155 9.56494 10.2144 10.8638 11.5133 12.1627 12.8121 13.4616 14.111 14.7604 15.4099 16.0593 17.3375 18.6156 19.8938 21.1719 22.45 23.7282 25.0063 26.2845 27.5626 28.8408 30.1189 31.3971 32.6752 33.9533 35.2315 36.5096 37.7878 39.0659 40.3441 41.6222 42.9003 44.1785 45.4566 46.7348 48.0129 49.2911 50.5692 51.8474 53.1255 54.4036 55.6818 56.9599 59.6055 62.251 64.8966 67.5421 70.1877 72.8332 75.4787 78.1243 80.7698 83.4154 86.0609 88.7065 91.352 93.9975 96.6431 99.2886 101.934 104.58 107.225 109.871 112.516 115.162 117.807 120.453 123.099 125.744 128.39 131.035 133.681 136.326 138.972 141.617 140.589 139.56 138.531 137.503 136.474 135.445 134.416 133.388 132.359 131.33 130.302 129.273 128.244 127.215 126.187 125.158 124.129 123.101 122.072 121.043 120.015 118.986 117.957 116.928 115.9 114.871 113.842 112.814 111.785 110.756 109.727 108.699 110.005 111.311 112.616 113.922 115.228 116.534 117.84 119.146 120.452 121.757 123.063 124.369 125.675 126.981 128.287 129.593 130.899 132.204 133.51 134.816 136.122 137.428 138.734 140.04 141.346 142.651 143.957 145.263 146.569 147.875 149.181 150.487 154.226 157.965 161.704 165.443 169.182 172.921 176.66 180.399 184.138 187.877 191.616 195.355 199.094 202.833 206.572 210.311 214.05 217.789 221.528 225.267 229.006 232.745 236.484 240.223 243.962 247.701 251.44 255.18 258.919 262.658 266.397 270.136 270.694 271.252 271.81 272.369 272.927 273.485 274.043 274.602 275.16 275.718 276.277 276.835 277.393 277.951 278.51 279.068 279.626 280.184 280.743 281.301 281.859 282.417 282.976 283.534 284.092 284.65 285.209 285.767 286.325 286.883 287.442 288
27.9073 25.3507 24.895 26.6188 26.1426 26.5448 22.8904 21.1947 21.2496 21.3805 20.2495 21.9211 18.1426 17.4864 17.8331 15.8537 12.4562 10.7915 12.2769 9.93181 9.51215 8.35103 8.53377 7.55002 4.06962 3.16219 3.07897 2.81729 0.929711 0.108063 -0.916457 -4.07327 -0.670519 -4.86677 -4.336 -5.01442 -1.06837 -0.396484 -1.16505 -0.618896 1.98872 4.93153 5.61828 3.24251 5.08524 7.57814 12.5757 9.9271 8.44354 13.0243 15.217 15.2199 14.6585 12.4689 12.5186 13.4616 11.8347 11.624 11.7824 15.2961 13.3359 14.8138 14.6765 14.5612 14.0082 14.7602 16.9601 18.1338 15.9575 21.1332 22.0453 25.5334 29.1744 29.3928 31.6151 30.7046 33.086 33.9343 35.8372 36.4059 39.127 43.8284 45.6229 45.2052 45.8917 46.6933 48.4496 49.7615 50.1457 53.8886 54.0437 52.2693 55.8322 55.7923 57.0893 57.1073 58.3592 61.2607 63.2035 66.4113 71.8237 74.2759 77.0232 77.9202 79.9177 82.4652 83.1549 84.1257 83.8017 90.5568 93.7685 96.8771 101.585 101.149 103.218 106.633 108.478 110.116 114.511 116.465 119.955 122.691 124.029 130.052 133.482 136.781 138.652 142.043 142.654 145.008 143.348 140.202 139.179 138.233 136.857 134.14 133.439 130.194 129.373 126.138 126.676 125.949 122.627 124.801 122.919 122.095 119.626 115.036 115.239 115.066 113.949 114.08 112.186 111.811 113.482 112.588 112.998 109.317 110.115 109.43 111.967 112.196 113.357 116.576 117.148 119.7 119.26 121.004 124.931 123.819 126.31 125.491 123.386 123.343 124.802 129.411 128.079 129.771 132.468 134.515 134.626 134.077 137.983 139.292 140.907 140.767 140.427 145.199 149.012 146.498 148.158 149.189 150.493 152.489 156.766 161.385 164.459 170.645 172.417 176.469 180.271 182.511 189.098 192.794 199.023 203.215 204.707 210.04 212.852 218.37 223.879 224.671 227.13 230.004 235.852 239.81 242.189 245.352 249.9 254.578 261.169 263.095 265.392 268.397 271.411 270.856 266.405 266.498 267.65 267.884 267.672 269.562 274.802 274.676 274.538 273.654 273.118 277.842 276.319 274.355 276.304 278.594 278.461 280.172 280.29 281.995 280.721 282.076 283.381 287.834 289.342 287.427 286.806 288.067 289.538 289
27.4983 20.9966 23.4122 25.8279 26.9015 27.9751 23.7726 19.57 20.9034 22.2368 23.925 25.6133 22.3261 19.0389 18.5539 18.0688 14.1542 10.2396 10.5275 10.8153 10.3821 9.94892 10.2955 10.6421 7.40183 4.16158 4.96426 5.76694 4.2053 2.64366 -0.390083 -3.42383 -4.86677 -6.30972 -7.1068 -7.90388 -3.93539 0.0331073 -0.838744 -1.71059 3.19039 8.09137 5.75292 3.41447 7.10066 10.7868 12.4864 14.1859 16.6336 19.0813 20.6275 22.1737 18.7733 15.3728 15.7161 16.0594 13.5723 11.0853 14.108 17.1306 15.9989 14.8672 13.9651 13.063 11.9839 10.9048 13.0002 15.0957 16.8169 18.5381 21.6602 24.7822 27.3636 29.9449 29.9786 30.0122 31.9638 33.9153 35.1087 36.3022 42.4465 48.5909 48.6895 48.7882 48.9982 49.2081 50.9982 52.7882 55.6372 58.4862 55.5887 52.6912 54.936 57.1809 57.2178 57.2547 58.7626 60.2705 62.7754 65.2804 70.4995 75.7186 76.7173 77.716 79.6155 81.515 80.53 79.545 83.3305 87.1161 90.7908 94.4655 96.0915 97.7175 100.557 103.396 104.233 105.07 108.774 112.478 116.057 119.637 124.353 129.069 133.152 137.235 139.852 142.468 146.462 150.455 146.678 142.901 141.961 141.021 137.957 134.893 131.975 129.057 126.03 123.004 123.843 124.682 124.563 124.443 122.767 121.09 115.059 109.029 110.087 111.146 111.188 111.231 109.991 108.751 110.557 112.363 110.12 107.878 109.02 110.162 111.621 113.081 116.155 119.229 121.048 122.866 122.864 122.862 124.372 125.881 126.246 126.612 123.159 119.706 124.467 129.228 128.283 127.338 130.776 134.214 132.47 130.725 134.635 138.544 138.713 138.882 142.008 145.134 145.128 145.122 146.507 147.892 147.453 147.014 152.17 157.327 162.848 168.369 170.454 172.54 174.843 177.145 183.689 190.233 196.915 203.597 206.683 209.769 214.36 218.951 221.513 224.074 225.668 227.262 233.329 239.397 241.199 243.002 248.49 253.977 258.755 263.533 265.095 266.658 268.559 270.459 265.544 260.628 261.455 262.282 263.402 264.522 269.078 273.634 272.054 270.474 274.103 277.733 273.687 269.642 273.323 277.003 278.023 279.043 280.308 281.573 281.096 280.619 285.818 291.017 290.052 289.088 289.169 289.251 289.625 290
32.3224 25.5598 23.4604 25.037 25.5615 24.1293 20.3127 17.9453 20.89 23.448 26.4945 29.3055 23.3438 23.3936 22.8002 20.2839 16.056 13.8901 11.6745 11.6988 12.1933 12.3266 12.948 13.7341 10.0948 9.2039 8.4724 8.7166 4.2809 3.70716 -0.339111 -2.77439 -4.56798 -7.1068 -8.0671 -10.7933 -8.36353 -4.37765 -3.93706 -2.80229 0.955127 4.01178 2.46205 3.58643 7.40668 12.0089 16.7082 18.4447 21.4449 24.2369 26.4027 29.1276 25.5855 22.0205 20.9735 18.6571 17.7368 16.0563 16.4137 18.9651 16.5819 15.1502 12.9626 11.5649 11.0911 10.2239 11.673 12.0576 13.7048 17.3439 21.7345 24.0311 23.9493 27.9493 27.6917 29.3198 32.5097 33.1382 34.5318 36.1984 41.4211 47.3077 50.2025 52.3712 51.3676 53.303 53.9893 55.8149 59.2668 57.3373 55.4665 53.1132 55.8822 56.3616 57.4769 57.4021 60.0268 60.2773 63.7063 64.1495 68.7625 72.9409 75.923 77.5119 77.5326 77.6803 77.0421 74.9642 79.7919 83.5645 88.2529 92.054 93.5302 95.4995 97.6133 100.158 104.023 102.891 106.702 108.49 115.92 117.72 121.948 128.085 134.642 136.223 140.007 142.894 145.021 148.132 144.907 145.6 141.871 141.685 137.099 135.645 131.232 127.811 123.703 119.869 122.693 122.457 124.231 124.086 119.422 115.73 109.687 103.021 103.505 106.21 107.693 108.382 109.768 108.737 109.841 112.137 112.58 109.823 109.005 110.893 114.306 115.581 120.111 121.883 123.72 124.212 124.367 124.721 125.854 126.799 127.459 127.733 123.596 124.283 128.241 129.046 128.883 129.288 132.638 133.913 134.845 133.028 134.413 137.796 140.384 139.954 142.687 145.069 144.267 145.136 142.954 146.595 146.067 147.134 150.587 153.269 159.423 162.657 162.47 168.611 173.428 176.021 182.207 187.672 192.074 200.383 207.24 209.497 214.326 217.502 219.432 223.478 225.838 228.994 234.93 238.984 239.456 244.337 251.507 253.376 256.702 260.755 264.766 264.919 264.462 263.246 259.492 254.758 255.996 256.973 256.534 259.482 263.776 266.456 269.438 267.294 267.295 269.949 265.582 264.929 268.412 272.752 274.945 277.914 277.978 279.409 277.385 279.161 282.392 288.036 289.366 290.748 292.226 290.728 289.367 291
33.0615 30.123 27.1846 24.2461 22.2647 20.2834 18.302 16.3206 20.4899 24.6591 28.8284 32.9976 30.373 27.7483 25.1236 22.499 20.0198 17.5407 15.0615 12.5823 13.6433 14.7043 15.7652 16.8262 15.5362 14.2462 12.9562 11.6663 8.21845 4.77065 1.32285 -2.12495 -5.01442 -7.90388 -10.7933 -13.6828 -11.2356 -8.7884 -6.3412 -3.89399 -1.9809 -0.0678048 1.84529 3.75838 8.49466 13.2309 17.9672 22.7035 26.048 29.3925 32.7369 36.0814 32.3748 28.6682 24.9615 21.2549 21.1411 21.0273 20.9135 20.7997 18.1164 15.4332 12.75 10.0667 9.80492 9.5431 9.28127 9.01945 12.5846 16.1497 19.7149 23.28 24.6169 25.9537 27.2906 28.6274 30.4943 32.3611 34.2279 36.0947 41.0596 46.0245 50.9893 55.9542 56.6761 57.3979 58.1198 58.8416 57.515 56.1884 54.8617 53.5351 54.5387 55.5423 56.5459 57.5495 58.9168 60.2841 61.6514 63.0187 66.591 70.1632 73.7355 77.3078 75.5767 73.8456 72.1145 70.3834 75.1982 80.0129 84.8277 89.6424 91.462 93.2815 95.101 96.9206 98.8161 100.712 102.607 104.503 110.152 115.802 121.452 127.102 131.156 135.211 139.265 143.319 144.564 145.809 147.054 148.299 145.324 142.348 139.373 136.397 131.482 126.566 121.65 116.734 118.483 120.231 121.98 123.728 117.05 110.371 103.693 97.0139 99.1438 101.274 103.403 105.533 107.128 108.722 110.317 111.912 111.84 111.768 111.696 111.624 114.852 118.08 121.308 124.536 125.047 125.557 126.068 126.579 127.148 127.717 128.286 128.855 128.857 128.859 128.862 128.864 130.051 131.238 132.425 133.612 134.471 135.33 136.189 137.049 139.038 141.027 143.016 145.005 145.078 145.151 145.224 145.297 146.276 147.254 148.232 149.211 153.078 156.946 160.814 164.681 169.789 174.896 180.004 185.112 191.14 197.169 203.197 209.226 212.64 216.053 219.467 222.881 226.803 230.726 234.648 238.57 242.121 245.673 249.224 252.775 255.376 257.977 260.578 263.18 259.607 256.033 252.46 248.887 250.276 251.665 253.053 254.442 256.86 259.278 261.695 264.113 263.139 262.164 261.19 260.216 264.358 268.5 272.643 276.785 277.015 277.244 277.474 277.704 281.38 285.056 288.732 292.409 292.306 292.204 292.102 292
32.6334 27.3827 23.8501 24.4123 23.2023 21.0169 18.172 14.696 17.1225 23.23 26.9561 29.8959 28.8529 25.5612 25.9149 24.7141 20.5805 22.3386 19.6059 17.006 19.3763 17.8697 16.9051 19.9182 21.269 17.6627 16.3978 12.4581 9.83917 4.27459 1.41045 -1.47551 -3.04929 -7.10073 -10.1375 -11.2356 -11.1405 -8.97678 -7.61047 -4.98569 0.110288 -0.657939 3.86693 6.75352 12.1494 16.4111 23.0025 26.9623 26.8659 30.6073 34.5303 35.9842 32.1444 28.9759 26.4079 23.8527 20.5889 22.5034 21.7658 20.0648 13.8129 11.7833 9.61833 8.5686 8.45132 12.5153 11.4458 9.8083 12.5311 13.6259 19.3231 22.5289 22.2543 23.9001 25.4549 28.465 30.853 33.2197 32.8337 35.991 42.0573 43.9736 47.4819 55.2942 57.1378 58.9474 60.8761 61.8684 61.9289 56.8619 54.1796 56.2873 56.5458 57.3291 58.1848 57.6969 57.0998 62.2221 61.6452 64.0928 67.572 69.7222 70.9104 77.1037 74.7831 74.2742 71.6443 72.3485 75.2228 76.5659 81.597 87.2309 87.7381 88.1907 90.706 93.759 91.5768 92.9874 96.321 100.515 105.94 112.25 118.945 124.523 127.887 133.311 138.59 143.745 144.358 143.156 143.932 146.778 145.068 142.637 140.186 137.15 131.573 128.631 123.538 120.264 119.449 122.966 123.85 123.371 118.997 114.499 107.971 99.8151 99.794 102.009 101.842 102.685 104.136 106.178 108.584 110.02 110.427 112.8 113.536 112.356 116.719 119.029 122.413 124.472 124.663 126.309 129.942 128.437 125.891 125.189 127.964 129.409 127.796 124.658 127.733 128.682 131.882 132.962 131.697 132.983 132.816 136.14 134.142 136.301 138.243 139.288 141.311 143.024 142.612 142.221 143.259 144 145.801 147.047 146.509 148.042 148.186 153.12 154.904 160.752 164.024 172.705 176.865 183.472 190.471 194.99 201.334 208.955 213.124 215.399 220.974 222.793 225.89 230.976 236.047 238.157 242.782 243.016 244.446 251.224 250.799 256.376 260.014 261.44 257.756 253.678 252.856 247.979 248.995 247.306 249.469 249.402 251.859 253.337 254.926 257.541 257.817 254.098 256.717 255.503 261.642 265.141 267.789 271.743 272.393 272.528 273.539 276.246 280.142 282.613 284.288 290.291 290.227 291.189 290.318 293
31.3212 24.6423 24.6104 24.5785 23.1645 21.7504 17.4109 13.0713 17.4361 21.8009 24.2975 26.7941 25.0842 23.3742 25.1517 26.9292 27.0329 27.1366 24.2831 21.4296 21.2324 21.0352 22.0228 23.0103 22.0448 21.0793 17.1646 13.2499 8.51423 3.77853 1.47623 -0.826075 -3.56183 -6.29758 -7.54299 -8.7884 -8.97678 -9.16516 -7.62127 -6.07739 -3.66273 -1.24807 4.25029 9.74865 14.6699 19.5912 25.4061 31.2211 31.5216 31.8221 33.8545 35.8869 32.5853 29.2837 27.8671 26.4504 25.215 23.9796 21.6547 19.3299 13.7316 8.1334 7.60192 7.07045 11.279 15.4876 13.0424 10.5972 10.8496 11.102 16.4399 21.7778 21.8121 21.8465 25.0745 28.3026 31.1904 34.0782 34.9828 35.8873 38.905 41.9226 48.2784 54.6342 57.5656 60.4969 62.696 64.8951 61.2153 57.5355 58.2875 59.0394 59.0777 59.1159 58.4801 57.8443 61.0022 64.1602 64.6636 65.167 67.224 69.2811 73.0903 76.8996 75.8011 74.7027 74.5082 74.3136 73.7162 73.1189 78.9691 84.8194 83.9596 83.0999 86.8487 90.5975 87.9303 85.2632 90.8953 96.5275 102.613 108.698 115.321 121.944 126.678 131.411 137.791 144.171 142.337 140.504 142.88 145.257 144.092 142.926 140.414 137.902 134.299 130.697 127.245 123.794 124.747 125.7 124.357 123.014 120.82 118.627 110.622 102.616 102.68 102.744 101.29 99.8358 101.735 103.634 105.881 108.128 110.98 113.832 113.46 113.087 116.533 119.979 122.194 124.409 125.735 127.06 128.678 130.295 126.478 122.661 126.312 129.964 125.21 120.456 124.478 128.5 131.593 134.686 133.52 132.354 134.652 136.95 136.251 135.553 136.551 137.55 139.297 141.044 140.168 139.292 140.997 142.703 144.771 146.839 146.856 146.873 148.084 149.294 153.058 156.822 163.668 170.514 176.173 181.832 187.322 192.811 200.747 208.683 211.714 214.745 218.725 222.705 226.966 231.227 234.485 237.744 239.051 240.359 245.016 249.673 252.223 254.774 257.238 259.701 255.512 251.322 249.196 247.07 245.008 242.947 243.654 244.362 245.879 247.396 249.182 250.968 248.5 246.031 248.41 250.789 256.285 261.781 264.241 266.702 267.257 267.811 271.3 274.789 277.479 280.17 284.171 288.173 289.174 290.174 292.087 294
34.7973 28.5489 25.082 24.7448 20.9569 19.5584 14.4983 11.4466 14.6543 18.5036 20.728 23.6924 25.66 24.6746 26.9 29.1442 29.6845 28.9774 27.1268 25.8532 26.251 25.3854 25.1564 26.1023 23.3231 21.5466 18.4696 14.0418 10.3223 5.71586 3.21134 -0.176636 -1.74714 -4.00409 -3.57759 -6.3412 -5.16201 -7.62127 -7.42006 -7.16909 -2.5431 1.2455 6.7965 12.7438 17.9493 23.665 28.7996 35.4799 34.7206 34.7688 34.5483 35.7896 34.2239 31.4764 29.0237 29.0482 27.4191 24.3663 20.9001 18.595 14.1776 9.55026 10.0402 5.5723 10.0323 11.806 10.4093 11.386 11.4861 13.6636 17.0537 21.0267 24.6676 22.9865 25.6297 28.1401 29.7796 32.9535 33.9094 35.7835 37.7353 43.2098 49.0727 53.9742 58.8543 61.3141 66.5241 67.9218 65.5029 62.6408 63.8641 61.7916 59.4943 60.2287 59.911 57.9917 58.3191 63.4437 61.8604 66.2411 66.986 70.5922 71.5239 76.6954 77.7082 76.0351 77.0096 76.2787 75.9785 76.1194 78.0897 82.4078 80.2354 82.6176 86.4722 87.4359 87.552 85.8382 89.2018 92.5399 98.6628 105.684 113.467 119.366 124.005 131.158 138.036 144.596 141.642 142.061 144.499 143.736 142.249 141.869 140.325 138.655 136.509 132.913 131.983 127.323 127.885 126.138 122.277 122.656 119.966 116.943 111.888 105.417 102.316 101.961 99.533 96.987 97.2198 101.437 102.479 106.236 107.534 111.64 111.197 113.819 117.096 119.697 122.355 124.345 126.04 128.104 131.122 132.154 130.597 127.602 129.384 130.519 126.279 125.031 127.532 128.318 130.652 132.151 132.488 131.725 133.961 134.763 134.106 134.805 135.952 136.56 138.243 139.063 138.02 138.944 140.666 141.406 142.273 144.581 145.86 145.705 147.083 148.022 150.28 152.893 160.126 167.136 173.769 180.192 184.513 193.079 201.316 208.412 211.532 215.04 217.944 222.617 225.769 230.475 232.893 237.331 240.132 241.051 245.355 248.121 251.443 253.086 255.842 257.962 255.281 251.03 247.009 246.161 243.115 241.357 240.977 239.322 240.813 241.724 243.642 244.395 247.131 242.812 244.11 246.076 251.756 255.386 258.47 261.66 265.703 266.029 268.932 273.331 276.094 279.038 280.685 286.055 286.956 290.071 294.225 295
36.2277 32.4555 28.6832 24.911 21.1387 17.3665 13.5942 9.82197 12.5141 15.2063 17.8985 20.5906 23.2828 25.975 28.6672 31.3593 31.0887 30.8181 30.5475 30.2769 30.0062 29.7356 29.465 29.1944 25.6042 22.014 18.4238 14.8336 11.2434 7.6532 4.063 0.472802 -0.618896 -1.71059 -2.80229 -3.89399 -4.98569 -6.07739 -7.16909 -8.26079 -2.26086 3.73907 9.739 15.7389 21.7389 27.7388 33.7387 39.7386 38.7271 37.7155 36.7039 35.6923 34.6807 33.6692 32.6576 31.646 28.1995 24.753 21.3065 17.8601 14.4136 10.9671 7.52064 4.07416 6.09933 8.12451 10.1497 12.1749 14.2 16.2252 18.2504 20.2756 22.2011 24.1266 26.0522 27.9777 29.9032 31.8287 33.7543 35.6798 40.0884 44.497 48.9056 53.3141 57.7227 62.1313 66.5399 70.9485 69.3473 67.7461 66.145 64.5438 62.9426 61.3415 59.7403 58.1391 60.4331 62.7272 65.0212 67.3152 69.6092 71.9033 74.1973 76.4913 76.9294 77.3676 77.8057 78.2438 78.6819 79.12 79.5582 79.9963 81.0658 82.1353 83.2048 84.2743 85.3438 86.4133 87.4829 88.5524 95.611 102.67 109.728 116.787 123.846 130.904 137.963 145.022 144.32 143.618 142.916 142.214 141.513 140.811 140.109 139.407 137.269 135.13 132.992 130.853 128.715 126.576 124.437 122.299 118.779 115.259 111.739 108.219 104.698 101.178 97.6583 94.1382 96.6897 99.2412 101.793 104.344 106.896 109.447 111.999 114.55 116.983 119.416 121.848 124.281 126.714 129.147 131.579 134.012 133.277 132.543 131.808 131.074 130.339 129.605 128.87 128.136 128.876 129.616 130.356 131.096 131.837 132.577 133.317 134.057 134.814 135.57 136.326 137.083 137.839 138.596 139.352 140.108 141.215 142.322 143.429 144.536 145.643 146.75 147.857 148.963 156.361 163.758 171.155 178.552 185.949 193.346 200.744 208.141 211.738 215.335 218.932 222.529 226.126 229.723 233.32 236.917 239.331 241.744 244.157 246.57 248.984 251.397 253.81 256.223 253.481 250.738 247.995 245.253 242.51 239.767 237.025 234.282 235.167 236.052 236.937 237.823 238.708 239.593 240.478 241.363 245.177 248.991 252.805 256.618 260.432 264.246 268.06 271.874 274.889 277.905 280.921 283.937 286.953 289.968 292.984 296
40.3055 39.0717 35.2548 31.9425 27.8273 21.6028 19.4211 14.6617 16.0134 18.64 21.4188 29.1498 29.9354 29.1583 33.1671 33.5744 33.1572 33.2368 34.0329 31.6905 32.8934 33.2478 29.849 28.9669 24.9208 20.6283 16.4478 13.3948 10.8432 8.50034 3.68022 1.12224 1.09049 3.67442 2.07612 -1.94603 -4.47927 -5.71098 -3.46538 -2.26086 4.201 10.7315 14.9949 22.6941 29.4778 32.0096 37.3308 43.9974 41.5277 39.2861 38.5494 37.4078 37.8388 35.7412 33.9526 31.8089 29.3713 25.6301 21.3056 18.1096 13.3292 10.5857 7.13418 2.57601 6.79761 10.2028 13.9605 15.636 16.9845 17.2922 18.3005 19.4248 21.6177 25.6487 27.7387 29.1571 29.7545 29.2767 30.4525 35.5761 40.4076 41.0777 45.1889 48.6701 54.2797 58.1897 64.125 67.9655 67.1116 64.4945 62.7683 59.1368 56.446 56.1657 56.8004 58.2865 59.0199 63.3364 63.8308 67.1845 68.2659 67.7899 70.9272 74.4313 73.5816 74.1197 74.1486 77.1538 74.4242 75.6881 77.295 77.5847 76.15 78.4335 80.2707 84.5168 86.8049 86.5501 87.8635 90.5539 96.9975 103.724 110.565 117.774 123.177 127.612 134.606 145.447 146.456 145.232 143.941 144.904 140.995 140.024 139.647 138.723 135.29 133.528 133.011 131.615 128.671 124.912 123.367 121.941 119.986 117.634 113.163 107.615 103.836 102.165 101.178 97.361 101.356 102.776 104.048 103.155 105.284 108.446 112.477 115.281 115.714 119.862 124.98 124.132 123.26 125.787 129.798 132.703 132.529 133.026 130.831 130.582 130.285 131.513 130.909 127.953 129.039 132.626 130.625 131.853 133.039 133.68 131.669 133.326 134.623 134.87 136.313 135.853 137.12 135.306 136.188 138.811 139.392 143.262 145.163 146.853 148.658 147.102 146.377 151.324 157.164 163.328 170.585 177.497 184.984 194.541 200.6 207.869 210.6 211.818 212.986 217.867 220.639 225.668 228.69 235.32 238.985 241.811 243.556 246.018 249.484 252.176 252.826 254.484 252.771 249.505 246.933 244.224 243.369 239.927 238.31 232.87 232.696 232.144 232.23 231.551 231.413 231.651 232.992 236.65 238.715 242.74 249.48 254.071 258.103 261.298 263.688 269.618 272.803 276.068 280.382 282.954 288.024 290.777 293.481 297
43.8439 45.6878 42.331 38.9741 32.4066 25.8391 22.6703 19.5015 20.7875 22.0736 29.8913 37.709 35.0253 32.3417 34.0656 35.7895 35.7225 35.6555 34.3798 33.1042 34.9321 36.7599 32.7496 28.7393 23.991 19.2427 15.5993 11.956 10.6517 9.34747 5.55958 1.77168 5.41555 9.05943 4.53068 0.00192428 -2.67133 -5.34458 -0.802753 3.73907 10.7315 17.7239 23.6866 29.6493 32.9649 36.2805 42.2683 48.2562 44.5565 40.8568 39.99 39.1232 38.4682 37.8133 34.8925 31.9717 29.2395 26.5072 22.4332 18.3592 14.2817 10.2043 5.64108 1.07787 6.67948 12.2811 15.6891 19.0971 18.7282 18.3593 18.4666 18.574 22.8724 27.1708 28.7536 30.3364 28.5306 26.7247 31.0985 35.4723 36.5654 37.6585 40.8422 44.026 49.1371 54.2481 59.6153 64.9824 63.1126 61.2429 57.4864 53.7299 52.3599 50.9899 54.7119 58.4339 61.1898 63.9457 65.4997 67.0537 65.3651 63.6765 68.0239 72.3713 71.6216 70.8719 73.4678 76.0638 74.16 72.2563 73.7147 75.1732 74.9524 74.7317 79.7455 84.7593 85.7231 86.6868 89.6212 92.5555 98.6668 104.778 111.769 118.76 121.54 124.321 135.097 145.873 146.36 146.846 147.22 147.594 143.416 139.237 138.638 138.039 134.982 131.926 132.151 132.376 127.812 123.247 122.416 121.584 120.796 120.009 113.51 107.011 105.082 103.152 101.868 100.584 103.447 106.31 104.138 101.966 104.706 107.445 111.729 116.013 118.161 120.309 122.146 123.982 123.205 122.428 126.911 131.394 132.452 133.509 131.8 130.091 131.756 133.421 130.596 127.771 131.704 135.637 134.123 132.609 133.696 134.783 133.689 132.594 133.382 134.17 134.397 134.624 133.32 132.016 134.765 137.514 140.858 144.201 146.686 149.171 148.313 147.454 150.57 153.685 158.292 162.899 169.67 176.441 186.089 195.736 201.667 207.598 207.949 208.3 210.753 213.205 217.409 221.613 227.668 233.723 237.801 241.879 243.672 245.466 249.211 252.956 252.851 252.745 250.509 248.273 245.734 243.195 241.641 240.087 235.772 231.458 229.847 228.236 226.757 225.278 224.494 223.709 227.823 231.937 234.213 236.489 244.006 251.523 254.936 258.35 262.856 267.362 270.796 274.23 278.1 281.971 286.778 291.586 294.793 298
46.357 47.1032 47.1078 46.0057 41.0123 33.4741 30.2197 24.3412 25.9857 32.0389 39.4909 46.2682 42.0406 39.9326 38.6019 38.0046 38.5014 36.8655 36.5665 34.5178 32.7635 34.4339 31.8875 28.5118 23.9226 18.962 13.8118 10.5172 9.59147 7.71097 5.43363 2.42112 6.99446 6.27181 2.67365 1.94988 3.43274 2.2369 6.94784 9.739 16.0069 23.6866 29.1321 36.6045 38.974 43.2236 48.322 52.515 47.0572 45.2604 43.5644 40.8387 38.5819 37.6195 36.0983 32.1346 30.6444 26.0425 22.0722 18.6087 13.3556 9.3371 4.9212 -0.42028 6.03957 12.1658 17.1193 22.5583 22.8043 19.9026 17.4834 17.7233 23.3318 25.9774 28.9531 31.5158 30.3486 30.3524 33.45 35.3686 36.1667 36.3299 36.3758 39.3819 45.0302 50.5626 57.1032 61.9994 59.2174 56.1045 51.3342 48.3229 50.2529 50.9061 54.1442 58.5813 60.3383 63.3531 64.0814 66.923 65.2321 65.5991 69.9734 70.3112 70.5723 70.9697 70.7149 74.9738 75.0246 72.1866 73.8276 72.7616 72.6471 76.2644 77.8513 85.0018 86.9407 88.7941 91.0661 94.5571 100.256 106.712 111.524 119.747 125.539 129.025 139.484 146.298 146.236 148.348 149.087 150.285 146.081 142.03 139.06 137.354 135.614 133.605 132.508 133.138 127.269 125.316 121.346 121.227 121.409 116.673 110.968 106.408 107.053 104.784 102.172 103.807 103.663 104.81 100.601 100.777 101.024 107.989 113.181 116.744 120.211 120.444 122.489 123.833 123.738 124.329 125.687 130.085 130.964 131.226 129.472 129.599 132.857 130.839 129.52 127.589 127.533 133.201 133.078 133.365 135.071 133.705 133.892 131.862 132.646 132.909 132.634 133.394 133.415 132.779 134.061 136.216 140.051 144.282 148.442 151.488 151.404 151.78 154.325 156.046 160.173 164.634 171.014 175.386 184.196 193.215 200.453 207.327 206.551 206.884 207.894 208.543 214.834 219.409 225.198 232.126 234.791 239.662 240.809 244.913 247.319 249.885 252.486 251.006 249.088 246.738 245.998 242.166 239.178 237.486 230.986 230.046 226.665 224.46 222.802 219.006 220.818 220.666 225.388 227.224 232.62 235.479 241.269 248.975 252.251 256.495 259.887 265.107 269.006 272.829 278.22 280.988 286.669 290.794 294.656 299
46.2593 48.5186 50.7779 53.0372 47.0732 41.1091 35.145 29.181 35.5926 42.0042 48.4157 54.8273 51.1754 47.5235 43.8716 40.2197 39.1476 38.0756 37.0035 35.9315 34.0197 32.1079 30.1961 28.2843 23.4828 18.6813 13.8798 9.07836 7.57641 6.07446 4.57251 3.07056 3.27738 3.4842 3.69102 3.89784 6.85811 9.81838 12.7787 15.7389 22.6941 29.6493 36.6045 43.5596 46.8632 50.1667 53.4703 56.7738 53.2189 49.6639 46.109 42.5541 39.9899 37.4258 34.8616 32.2975 28.9377 25.5779 22.2181 18.8583 13.6641 8.46992 3.27574 -1.91843 5.06604 12.0505 19.035 26.0194 23.7327 21.446 19.1592 16.8725 20.8282 24.7839 28.7395 32.6952 33.3376 33.98 34.6225 35.2649 35.1331 35.0013 34.8696 34.7378 40.8074 46.8771 52.9467 59.0163 54.9912 50.9661 46.9411 42.916 46.8692 50.8223 54.7755 58.7287 60.7446 62.7605 64.7764 66.7923 67.157 67.5217 67.8865 68.2512 69.6594 71.0675 72.4756 73.8838 73.0004 72.1169 71.2335 70.3501 74.0736 77.7972 81.5207 85.2443 88.0729 90.9015 93.7301 96.5587 102.602 108.646 114.69 120.734 127.231 133.729 140.226 146.724 148.286 149.849 151.412 152.975 148.898 144.822 140.746 136.67 135.977 135.285 134.592 133.9 130.642 127.384 124.127 120.869 117.103 113.337 109.57 105.804 106.11 106.417 106.723 107.029 105.169 103.309 101.449 99.5885 104.06 108.532 113.004 117.476 119.028 120.579 122.131 123.683 124.956 126.23 127.503 128.776 128.859 128.942 129.025 129.108 128.683 128.257 127.832 127.407 129.086 130.764 132.443 134.122 133.374 132.626 131.879 131.131 131.389 131.648 131.906 132.165 132.853 133.542 134.231 134.919 139.641 144.363 149.084 153.806 154.956 156.106 157.257 158.407 162.388 166.369 170.35 174.331 182.512 190.693 198.874 207.055 206.262 205.469 204.675 203.882 210.543 217.205 223.867 230.529 233.987 237.445 240.903 244.361 245.588 246.814 248.041 249.267 247.235 245.202 243.17 241.137 238.011 234.885 231.759 228.633 224.659 220.684 216.709 212.734 215.178 217.623 220.067 222.511 228.49 234.469 240.448 246.427 250.533 254.639 258.745 262.851 267.14 271.428 275.716 280.005 285.004 290.002 295.001 300
47.5878 47.6471 48.6664 51.8454 49.6774 47.0128 40.8528 34.0207 38.2091 40.8923 43.1865 53.323 48.966 43.7132 42.3541 42.4347 39.5593 37.0736 37.779 36.5054 35.0868 33.0983 32.1489 28.0567 24.0237 19.151 14.7108 10.9391 10.6066 7.00422 3.27824 3.71999 3.44313 2.74969 6.08403 8.59925 10.6707 15.8419 20.8117 21.7389 28.2986 35.2487 40.2016 46.8632 49.8642 54.6571 59.6628 61.0326 57.9221 52.5111 47.8657 45.2603 42.806 40.8305 37.3882 32.4604 27.3992 25.2391 21.983 17.2734 12.848 11.222 3.85877 -3.41657 3.72017 8.88068 12.6958 20.2094 19.3778 15.1988 16.1581 16.0218 19.1527 21.783 26.4497 30.5613 29.8628 33.1246 35.4983 35.1612 35.5858 35.0732 35.8162 36.2951 39.4141 47.8703 52.2038 56.0333 52.9937 49.0048 47.4104 45.4873 50.6051 53.384 56.3998 58.8761 60.929 63.2727 65.2953 65.0104 64.8696 63.2831 65.0908 66.1912 68.1539 67.8183 68.5802 70.5022 73.176 69.9684 70.7543 67.9385 73.4857 81.77 85.5011 84.5918 84.5211 87.4965 92.1767 98.5602 105.741 111.796 115.983 122.174 128.583 133.447 139.087 147.149 148.148 148.135 148.105 150.026 147.895 143.897 139.081 135.986 134.803 135.054 130.852 132.096 129.808 128.098 124.844 120.512 115.609 112.207 111.477 109.273 110.912 111.805 111.695 110.252 109.472 105.549 104.169 104.732 109.117 114.198 117.769 118.207 116.972 116.813 118.911 123.255 124.009 124.989 124.697 127.467 128.227 127.205 126.339 128.108 128.487 127.294 125.526 127.225 126.82 127.928 131.274 132.452 131.056 129.861 129.966 130.399 129.432 129.921 130.906 131.365 131.45 132.099 132.859 133.622 138.987 143.238 150.425 152.552 154.92 157.491 159.657 160.768 162.973 168.071 170.608 177.476 186.465 191.231 200.183 206.784 205.212 203.672 206.788 206.675 210.242 218.016 222.398 228.932 232.898 236.753 237.277 241.577 242.201 242.845 244.649 247.528 243.369 239.687 241.47 239.015 238.742 233.236 231.056 227.221 223.363 219.805 217.638 212.881 216.187 216.947 217.799 217.798 223.573 229.116 234.043 242.006 247.805 250.26 254.217 260.596 267.835 271.8 276.236 279.732 282.943 290.829 296.05 301
46.3878 46.7755 48.7146 50.6536 51.7851 52.9165 45.8885 38.8605 39.3205 39.7805 45.7996 51.8187 45.8608 39.903 42.2764 44.6498 40.3607 36.0716 36.5755 37.0793 35.584 34.0887 30.9589 27.8292 23.7249 19.6206 16.2102 12.7998 10.3669 7.93398 6.1517 4.36943 3.1923 2.01517 7.65792 13.3007 17.583 21.8653 24.8021 27.7388 34.2934 40.8481 45.5074 50.1667 54.6571 59.1475 62.2194 65.2914 60.3248 55.3583 51.6624 47.9665 46.1008 44.2351 38.4292 32.6232 28.7618 24.9004 20.2945 15.6886 14.8314 13.9741 4.5297 -4.91472 0.398068 5.71086 10.0551 14.3993 11.6755 8.95163 12.0613 15.171 16.9766 18.7822 23.6048 28.4275 30.3483 32.2691 33.6632 35.0574 35.1012 35.145 36.4987 37.8524 43.358 48.8636 50.9569 53.0502 50.0468 47.0434 47.551 48.0586 52.0021 55.9456 57.4846 59.0235 61.4042 63.785 63.5067 63.2285 61.1365 59.0446 61.5879 64.1312 64.3501 64.5691 65.8449 67.1207 67.4703 67.8199 66.6735 65.527 75.6349 85.7427 84.841 83.9394 84.0154 84.0915 92.3267 100.562 107.754 114.946 119.28 123.614 128.389 133.164 140.37 147.575 146.998 146.421 146.749 147.077 145.024 142.972 139.137 135.301 135.062 134.824 132.558 130.293 129.552 128.812 124.483 120.155 115.616 111.077 111.91 112.742 114.967 117.193 115.334 113.475 110.632 107.79 108.832 109.875 114.869 119.864 119.401 118.939 115.992 113.046 117.936 122.827 123.288 123.749 124.953 126.158 125.813 125.469 126.289 127.109 126.719 126.33 126.687 127.043 126.068 125.092 127.937 130.782 128.939 127.096 128.382 129.668 128.931 128.194 129.38 130.566 130.611 130.656 131.49 132.325 137.219 142.113 146.706 151.298 155.087 158.875 161.002 163.128 166.451 169.774 175.197 180.62 186.195 191.769 199.141 206.513 204.194 201.875 205.672 209.469 214.148 218.827 223.081 227.335 231.698 236.062 237.428 238.793 238.835 238.876 242.333 245.789 239.98 234.172 235.532 236.893 234.24 231.587 228.698 225.809 222.367 218.925 215.977 213.028 214.649 216.271 214.678 213.085 218.424 223.764 230.675 237.585 241.733 245.88 252.11 258.34 265.256 272.172 275.816 279.46 285.558 291.655 296.828 302
46.3876 47.4553 47.4636 49.4618 48.3139 50.6608 44.761 43.7002 44.9666 44.2278 47.3395 50.3143 48.4269 44.424 44.864 46.8649 46.8086 39.8626 39.8637 37.6532 34.3625 33.4446 30.9189 27.6017 23.8968 20.7842 17.2826 14.6605 10.3851 9.51437 6.68572 5.01887 4.86466 8.10053 13.0175 18.0021 25.0254 26.5432 29.1548 33.7387 40.4898 44.5522 48.4371 53.4703 58.8385 62.2194 64.6313 69.5502 61.9896 59.4761 56.9344 50.6728 47.0116 43.6996 38.34 32.7861 26.678 23.8172 19.6445 14.1038 10.3711 8.13906 2.98402 -6.41286 -2.32427 1.57248 3.59356 8.58928 7.73913 8.53799 13.0167 14.3202 13.1024 18.7984 23.2219 26.2936 28.5207 30.887 32.5885 34.9537 35.6332 36.5267 36.8892 39.4097 41.0243 46.4446 48.947 50.0672 48.2159 48.593 49.861 50.6299 54.9892 56.1027 54.533 59.1709 59.7807 61.6382 61.8094 61.4466 59.4771 59.4412 59.2953 62.0711 61.51 62.3767 64.4147 63.7391 64.2829 64.1753 62.992 63.1155 73.0359 78.7059 83.1788 83.2869 85.8512 88.8456 95.1708 102.563 106.955 115.238 120.125 125.055 129.639 135.313 141.67 148 147.06 145.612 147.363 144.128 140.935 140.264 136.876 134.617 132.203 132.567 132.035 128.49 127.338 125.937 122.754 119.797 117.233 115.318 114.656 116.211 117.629 118.497 118.646 116.698 114.303 113.915 113.66 115.018 114.919 120.073 119.736 119.67 118.733 117.116 119.858 122.399 121.744 123.252 125.005 124.849 124.345 124.897 127.146 126.109 125.878 126.112 122.95 126.861 126.277 126.076 127.171 129.112 125.792 127.459 127.79 128.936 125.433 128.39 130.143 129.767 129.074 130.002 128.425 131.027 133.9 140.687 145.717 150.044 154.45 158.598 163.148 165.489 170.37 173.577 180.11 183.765 190.247 194.105 197.223 206.242 204.443 206.194 207.287 212.262 216.263 219.212 221.855 225.738 229.705 232.373 233.962 236.01 236.745 238.322 243.112 244.05 238.235 235.826 235.487 234.77 230.506 229.702 229.393 224.397 222.39 218.539 213.142 213.175 212.124 212.381 212.329 208.372 213.699 219.983 228.226 233.165 237.625 243.584 249.415 256.085 261.701 269.272 275.375 279.187 286.682 291.556 296.463 303
48.0675 48.135 48.2025 48.27 48.3375 48.405 48.4725 48.54 48.6075 48.675 48.7425 48.81 48.8775 48.945 49.0125 49.08 46.3668 43.6535 40.9403 38.2271 35.5138 32.8006 30.0874 27.3742 24.6609 21.9477 19.2345 16.5212 13.808 11.0948 8.38154 5.66831 9.9271 14.1859 18.4447 22.7035 26.9623 31.2211 35.4799 39.7386 43.9974 48.2562 52.515 56.7738 61.0326 65.2914 69.5502 73.809 68.7015 63.594 58.4865 53.379 48.2715 43.164 38.0565 32.949 27.8415 22.734 17.6265 12.519 7.41149 2.30399 -2.80351 -7.91101 -5.23845 -2.56589 0.106673 2.77923 5.4518 8.12436 10.7969 13.4695 16.142 18.8146 21.4872 24.1597 26.8323 29.5048 32.1774 34.85 36.3792 37.9085 39.4378 40.967 42.4963 44.0256 45.5549 47.0841 48.6134 50.1427 51.6719 53.2012 54.7305 56.2598 57.789 59.3183 59.4049 59.4915 59.5781 59.6647 59.7513 59.8379 59.9245 60.0111 60.0977 60.1843 60.2709 60.3575 60.4441 60.5307 60.6173 60.7039 66.1865 71.6692 77.1518 82.6344 88.1171 93.5997 99.0823 104.565 110.048 115.53 121.013 126.495 131.978 137.461 142.943 148.426 146.614 144.803 142.991 141.179 139.368 137.556 135.745 133.933 132.121 130.31 128.498 126.686 124.875 123.063 121.251 119.44 119.5 119.56 119.62 119.68 119.74 119.8 119.86 119.921 119.981 120.041 120.101 120.161 120.221 120.281 120.341 120.401 120.794 121.186 121.578 121.971 122.363 122.755 123.148 123.54 123.932 124.325 124.717 125.109 125.502 125.894 126.286 126.679 126.869 127.06 127.251 127.441 127.632 127.823 128.014 128.204 128.395 128.586 128.776 128.967 129.158 129.349 129.539 129.73 134.495 139.26 144.025 148.79 153.555 158.32 163.085 167.85 172.615 177.38 182.145 186.91 191.675 196.44 201.205 205.97 208.242 210.513 212.784 215.055 217.327 219.598 221.869 224.141 226.412 228.683 230.955 233.226 235.497 237.769 240.04 242.311 239.895 237.48 235.064 232.648 230.232 227.817 225.401 222.985 220.569 218.153 215.738 213.322 210.906 208.49 206.075 203.659 209.93 216.202 222.473 228.744 235.015 241.287 247.558 253.829 260.101 266.372 272.643 278.915 285.186 291.457 297.729 304
49.703 50.4969 49.2761 49.5096 49.5178 47.4255 45.5855 42.6062 41.9351 44.8044 44.6656 42.7955 44.9327 44.5439 47.3312 48.5144 46.0243 44.0452 41.7201 39.6945 37.3584 37.3805 32.9748 28.5843 27.0677 22.4038 21.3695 17.7821 14.0302 9.84144 6.33069 6.31775 7.63369 10.7275 16.2122 21.8426 27.8038 32.0951 34.1502 38.2244 41.4998 47.034 50.0364 57.1811 60.584 64.2528 69.0143 68.7015 63.8584 59.9692 57.1651 53.5131 48.632 43.4331 36.4033 32.1479 29.8509 26.3251 21.0769 14.074 9.53056 3.67213 -2.10248 -9.40916 -8.02252 -3.17245 -3.49979 -1.97329 2.89586 5.62995 10.0984 11.3688 14.367 17.4284 19.269 23.7789 26.8886 29.8228 31.0646 33.603 31.9413 33.3478 32.818 34.6662 36.4507 38.9328 42.7254 43.7932 44.0772 44.4999 46.3315 49.3457 53.6664 55.6655 56.697 59.4657 59.3278 58.8472 59.2612 59.9508 63.6796 65.3725 65.1859 65.3039 63.2524 61.8735 61.0167 62.9712 67.589 65.5018 65.393 63.6884 71.8455 74.3104 77.5631 81.67 85.8047 93.0573 96.4722 104.664 110.706 118.14 124.689 129.263 136.512 141.396 146.093 148.852 149.105 147.716 145.655 141.078 139.14 135.092 135.49 135.826 136.204 135.39 135.135 132.724 128.541 128.248 124.721 120.954 123.532 125.799 122.094 120.746 124.236 124.37 125.547 122.663 122.077 122.813 121.209 117.696 114.959 115.373 119.845 121.133 122.073 120.667 122.887 125.105 125.377 122.29 124.003 125.246 124.158 124.747 124.681 124.673 126.376 124.437 124.538 126.295 127.279 126.895 130.124 128.68 130.138 131.376 132.284 130.721 130.018 128.362 129.563 130.539 129.909 129.633 127.311 128.433 136.305 138.701 144.722 148.716 156.9 159.131 165.712 168.275 170.023 179.261 181.33 187.366 191.976 197.979 202.455 203.205 205.364 205.747 208.619 210.058 210.2 215.687 219.231 224.071 226.864 229.241 233.191 235.775 239.305 240.104 242.794 240.572 237.967 234.735 231.549 231.034 228.456 226.903 227.034 222.748 220.454 215.771 213.53 211.811 212.952 213.504 210.616 207.633 213.927 221.791 228.066 232.685 240.112 246.988 254.073 258.79 261.517 263.979 271.504 278.693 284.758 291.933 297.78 305
51.4294 52.8588 51.804 50.7491 48.5976 46.4461 41.5592 36.6724 38.8031 40.9338 38.8574 36.7811 38.462 40.1429 44.0458 47.9487 46.1928 44.437 42.7994 41.1618 41.5611 41.9604 35.8774 29.7945 26.3272 22.8599 20.9514 19.0429 13.8155 8.5881 7.77765 6.96719 7.11811 7.26904 14.1254 20.9818 26.9755 32.9692 34.8396 36.7101 41.2609 45.8117 51.7 57.5884 60.4014 63.2143 63.4041 63.594 59.9692 56.3445 54.9959 53.6472 48.6747 43.7022 37.5244 31.3467 30.6315 29.9163 22.7726 15.6289 10.3346 5.04028 -2.93351 -10.9073 -7.34316 -3.77902 -5.25242 -6.72582 -1.79514 3.13555 6.20188 9.26822 12.6552 16.0423 19.7202 23.3981 26.7694 30.1408 31.2483 32.3559 30.5716 28.7872 28.5763 28.3654 31.1027 33.8399 37.1711 40.5023 39.6797 38.8571 42.1736 45.4902 50.2807 55.0712 57.3421 59.6131 58.908 58.203 59.2199 60.2368 65.5719 70.907 70.7519 70.5967 67.0797 63.5626 64.5738 65.5849 68.0289 70.4729 68.5729 66.6729 71.8122 76.9516 78.8286 80.7055 86.6102 92.5149 98.6391 104.763 112.756 120.749 126.39 132.03 138.681 145.332 147.304 149.277 149.953 150.629 145.803 140.977 136.802 132.627 135.173 137.719 139.095 140.471 139.616 138.762 136.097 133.432 127.95 122.468 127.253 132.038 126.925 121.812 125.376 128.939 127.172 125.405 125.495 125.585 120.409 115.232 112.849 110.465 116.165 121.864 121.006 120.148 124.193 128.239 125.032 121.825 124.388 126.952 126.061 125.17 124.703 124.236 123.608 122.98 124.446 125.911 126.32 126.73 128.324 129.919 132.423 134.928 134.083 133.237 130.688 128.139 130.125 132.111 131.014 129.917 128.526 127.135 132.638 138.141 143.391 148.641 154.292 159.942 164.322 168.701 174.921 181.141 184.482 187.822 193.669 199.517 199.979 200.44 200.711 200.982 203.021 205.061 208.418 211.776 217.889 224.002 226.9 229.799 234.061 238.324 240.381 242.439 240.636 238.833 235.412 231.991 230.706 229.42 227.705 225.99 224.251 222.512 217.95 213.388 211.845 210.301 214.409 218.518 215.062 211.607 219.494 227.38 232.003 236.625 244.658 252.69 258.22 263.75 262.668 261.586 270.028 278.471 285.44 292.408 299.204 306
52.0644 52.7365 52.1636 51.9887 47.2832 42.7313 39.221 30.7386 33.4471 32.8561 30.2885 30.7666 32.7108 37.9638 41.6889 47.3831 46.1461 44.947 43.123 42.6292 43.5386 40.0581 37.3597 31.0047 27.6241 24.8748 23.9451 20.3037 15.8214 11.7517 9.57896 7.61663 7.46601 10.5161 16.7901 20.121 26.633 29.72 33.0891 35.1958 41.6598 45.927 52.1972 57.9957 57.4957 59.5526 59.5066 58.4865 56.1755 54.9959 55.9401 53.7813 50.4099 42.7661 37.0378 30.5456 28.4864 27.079 22.3073 17.1839 10.7649 3.72895 -4.53973 -12.4054 -9.71352 -9.42313 -11.5277 -11.4784 -7.08196 -1.22321 3.56159 7.16759 13.3507 14.947 18.8797 23.0173 25.8378 28.195 28.5285 31.1089 30.9081 25.8 26.1739 22.0646 25.6418 29.341 32.3879 37.2114 36.7865 37.3535 40.066 41.6347 47.5251 51.9574 58.4218 59.7605 58.3355 59.2807 60.0726 60.5229 64.4613 70.9513 73.1685 75.8895 71.4247 69.7799 67.3174 68.1986 68.9138 71.1 69.9606 69.6574 74.3863 76.3304 78.924 79.741 85.2693 92.192 98.0897 104.862 113.883 121.006 127.052 134.797 139.501 144.589 148.362 149.703 150.145 148.04 142.441 140.876 138.735 136.883 138.541 139.612 140.2 143.321 144.977 144.8 141.234 135.8 127.361 123.983 125.457 128.379 126.789 122.878 126.997 128.178 128.198 128.147 127.086 123.091 116.577 112.767 112.522 113.64 118.626 122.596 124.111 124.532 126.359 131.373 128.565 127.13 126.797 128.657 127.957 126.016 124.402 123.799 123.788 123.617 122.107 125.527 126.639 127.75 129.11 131.157 132.644 135.131 136.53 135.754 134.076 132.451 134.914 133.682 132.045 129.907 129.16 125.838 131.077 137.329 141.998 148.567 153.632 159.482 161.332 169.126 175.993 180.142 184.189 188.277 192.884 195.669 196.911 197.675 196.551 197.985 200.652 200.063 203.41 210.62 219.258 223.933 229.505 231.72 237.064 240.872 242.722 240.913 237.627 237.094 234.413 231.382 228.047 227.806 226.532 225.052 223.749 222.275 217.07 214.024 212.717 208.791 211.971 215.968 217.483 215.581 222.555 229.705 236.685 240.566 248.898 255.889 262.669 268.71 269.184 268.717 274.388 278.249 286.323 292.711 299.289 307
52.3071 52.6141 52.9212 53.2283 46.1224 39.0165 31.9106 24.8048 24.7916 24.7784 24.7653 24.7521 30.2684 35.7848 41.3011 46.8174 46.1372 45.457 44.7768 44.0966 41.1261 38.1557 35.1853 32.2148 29.5523 26.8897 24.2271 21.5645 18.2399 14.9153 11.5907 8.26606 11.0146 13.7631 16.5116 19.2601 22.8655 26.4708 30.0762 33.6815 39.8619 46.0423 52.2226 58.403 57.147 55.891 54.635 53.379 53.5131 53.6472 53.7813 53.9155 47.8727 41.83 35.7872 29.7445 26.9931 24.2417 21.4903 18.7389 10.5782 2.41763 -5.74298 -13.9036 -14.4854 -15.0672 -15.6491 -16.2309 -10.9064 -5.58196 -0.257505 5.06695 9.45933 13.8517 18.2441 22.6365 24.4428 26.2492 28.0555 29.8619 26.3374 22.8129 19.2884 15.7638 20.303 24.8422 29.3813 33.9205 34.8852 35.8498 36.8145 37.7791 43.3113 48.8435 54.3757 59.9079 60.1331 60.3584 60.5837 60.8089 65.9023 70.9956 76.0889 81.1823 78.5898 75.9973 73.4048 70.8123 71.2697 71.7271 72.1844 72.6418 74.1755 75.7092 77.2429 78.7766 85.3228 91.869 98.4153 104.962 113.112 121.263 129.414 137.565 140.705 143.846 146.987 150.128 147.79 145.451 143.113 140.775 140.957 141.14 141.322 141.505 143.838 146.171 148.505 150.838 144.503 138.168 131.832 125.497 125.109 124.72 124.332 123.944 125.68 127.417 129.153 130.889 125.743 120.596 115.45 110.303 113.559 116.815 120.071 123.327 126.122 128.917 131.712 134.507 133.471 132.435 131.399 130.363 128.613 126.863 125.113 123.362 123.808 124.253 124.698 125.144 126.957 128.77 130.583 132.396 133.864 135.333 136.801 138.27 137.516 136.762 136.008 135.254 132.576 129.897 127.219 124.541 130.529 136.517 142.505 148.493 153.757 159.022 164.287 169.552 174.347 179.142 183.938 188.733 190.277 191.822 193.366 194.91 194.949 194.988 195.027 195.066 202.265 209.465 216.664 223.863 228.753 233.642 238.532 243.421 241.405 239.388 237.372 235.355 233.064 230.774 228.483 226.193 225.154 224.115 223.077 222.038 218.349 214.659 210.97 207.28 210.349 213.418 216.486 219.555 225.793 232.031 238.268 244.506 251.797 259.088 266.379 273.67 274.759 275.849 276.938 278.027 285.52 293.013 300.507 308
50.5014 48.9464 49.4574 47.0549 40.0452 33.8133 25.2849 18.8709 21.0845 19.6454 20.6895 24.2671 30.3701 35.1836 41.6942 46.2518 45.6313 43.6857 42.9679 43.2737 42.8354 41.6578 35.639 33.425 30.0447 27.0563 28.8752 22.1633 17.4668 15.4173 13.4617 8.9155 10.3401 14.9181 18.4314 19.2561 23.1175 26.6036 29.6616 32.1672 36.9648 39.8352 46.3157 51.3739 50.1922 50.6744 46.1883 48.2715 49.9472 49.8527 49.8824 47.8727 44.3881 39.7551 34.2531 28.9434 24.5228 22.9542 18.4445 14.8846 9.15188 0.313301 -9.12839 -15.4017 -16.4254 -17.146 -16.4288 -15.0771 -12.3096 -11.0168 -1.41118 2.96632 6.96789 10.4766 15.2715 19.6696 20.4148 21.8504 26.0717 28.6149 26.0959 22.8394 20.2536 17.5267 20.4648 24.0438 29.2578 30.6296 30.8908 31.2505 34.4824 38.4911 42.7338 48.1253 54.7742 60.0553 60.4964 63.0308 63.232 65.9631 70.2879 74.1813 80.9908 86.475 86.5277 80.9788 77.7023 76.4758 79.7967 79.7483 77.5081 75.6263 76.7982 79.0647 80.8307 82.8247 88.021 93.4774 97.7958 105.061 110.004 117.574 126.37 135.322 140.334 144.613 149.025 150.554 147.803 147.465 145.135 143.194 142.345 140.884 142.547 143.397 143.445 145.131 149.29 148.207 145.34 137.613 135.25 127.011 129.322 126.889 129.528 127.134 130.36 129.278 130.585 133.631 130.061 126.98 121.278 116.241 117.322 118.684 120.507 124.058 124.921 128.564 132.017 133.81 132.908 134.331 133.358 132.069 129.975 127.618 126.381 125.121 125.351 124.077 123.005 124.76 128.2 128.628 133.786 133.29 134.101 138.725 139.54 140.787 140.477 138.187 136.369 134.901 131.572 129.378 125.972 123.244 128.133 135.583 139.075 147.695 151.745 157.75 165.484 169.977 171.824 177.491 180.893 185.938 187.775 187.711 189.282 192.145 191.376 192.703 195.957 197.229 201.895 208.155 217.415 223.794 228.924 231.29 235.875 239.064 236.588 234.151 232.78 233.616 227.943 226.713 226.896 225.831 224.251 222.139 223.475 221.802 222.058 218.698 213.696 212.528 215.324 217.585 220.369 223.529 229.523 238.328 242.572 249.5 255.489 262.852 271.439 278.63 279.803 280.191 283.756 284.209 291.152 298.349 303.988 309
49.6393 45.2786 43.08 40.8815 34.7458 28.61 20.7736 12.9371 13.7248 14.5124 19.1473 23.7821 29.1823 34.5825 40.1343 45.6861 43.8002 41.9143 42.1826 42.4509 43.8054 45.16 39.8976 34.6352 30.929 27.2229 24.9925 22.7621 19.3407 15.9194 12.7422 9.56494 12.8191 16.0732 17.6627 19.2521 22.9942 26.7363 28.6946 30.6529 32.1405 33.6281 38.9865 44.3448 44.9013 45.4578 44.3109 43.164 44.6111 46.0582 43.9441 41.83 39.7551 37.6803 32.9113 28.1422 24.9045 21.6668 16.3486 11.0304 4.61968 -1.79103 -9.34546 -16.8999 -18.0623 -19.2248 -16.5741 -13.9234 -15.1875 -16.4516 -7.79298 0.86569 3.98356 7.10143 11.9021 16.7028 17.0772 17.4516 22.4097 27.3679 25.1169 22.866 21.0778 19.2896 21.2675 23.2455 25.2921 27.3387 26.9949 26.6511 32.9271 39.2031 43.3051 47.407 53.8049 60.2027 62.953 65.7033 68.4102 71.1172 74.2421 77.3669 84.5674 91.7678 88.8641 85.9604 84.0499 82.1394 84.9545 87.7695 83.1902 78.6108 80.5155 82.4202 84.6465 86.8728 90.9793 95.0858 100.123 105.16 109.523 113.885 123.482 133.079 139.229 145.379 148.179 150.979 150.229 149.478 147.546 145.614 143.121 140.627 142.959 145.29 144.691 144.091 144.834 145.577 141.318 137.059 132.792 128.526 128.791 129.057 129.691 130.325 130.732 131.139 133.756 136.374 134.869 133.364 127.771 122.179 121.366 120.552 122.671 124.79 126.501 128.212 130.663 133.113 134.67 136.227 135.001 133.775 131.074 128.373 127.627 126.88 125.391 123.901 124.139 124.376 126.431 128.486 131.335 134.184 138.15 142.117 142.71 143.303 141.457 139.612 137.08 134.549 131.704 128.859 125.403 121.946 128.298 134.65 140.774 146.898 151.688 156.478 163.44 170.402 173.121 175.84 179.491 183.142 183.372 183.601 186.491 189.38 189.899 190.417 194.905 199.392 203.119 206.845 215.285 223.725 226.331 228.938 231.823 234.707 231.81 228.913 230.395 231.877 227.264 222.652 224.06 225.469 222.816 220.163 220.864 221.565 222.151 222.737 220.256 217.776 219.764 221.753 224.628 227.503 236.064 244.625 249.559 254.494 260.555 266.616 275.103 283.591 284.062 284.534 287.463 290.391 297.038 303.684 306.842 310
48.7557 43.773 39.9933 34.7081 29.7383 21.7061 14.8794 7.00332 8.81552 13.2266 18.499 23.2972 28.5554 34.133 39.0656 45.1205 43.3026 42.2972 42.2534 41.628 37.9788 42.0451 39.1561 35.8453 33.9999 28.8652 25.39 23.3609 20.9086 16.6656 14.1245 10.2144 12.6585 15.5636 15.9555 19.2481 21.3446 25.0853 26.0221 29.1386 29.8487 31.2918 33.8168 37.3158 37.1479 38.5378 36.5818 38.0565 37.3657 38.7025 35.5855 35.7872 33.9967 32.9113 28.4244 27.3411 22.9697 18.2989 11.3948 7.17614 1.46388 -5.03908 -13.3614 -18.398 -17.4481 -17.4904 -13.8027 -12.7696 -12.9532 -11.9637 -4.73414 -1.23494 1.71384 5.4091 10.452 13.736 13.7372 17.6366 22.4345 26.1208 24.221 23.3553 23.002 21.0525 21.0205 22.5158 23.9494 24.0478 24.1899 28.6716 34.4218 39.9152 43.6072 48.9847 55.7618 60.3501 63.9862 68.3324 73.0218 76.2713 79.7972 84.6282 89.843 97.0606 95.9347 91.9352 89.4116 87.803 88.5803 88.3964 85.2016 81.5953 85.1545 86.0973 89.0925 90.9209 93.359 97.6246 101.723 105.259 112.393 115.431 121.793 130.837 135.593 142.796 145.835 151.405 151.357 150.31 150.799 148.034 147.15 145.196 146.362 147.183 145.616 144.393 142.273 142.946 140.514 136.497 135.512 130.04 129.381 131.594 130.988 133.516 133.753 135.21 139.694 139.116 137.578 135.66 132.184 128.117 127.418 125.353 126.282 125.521 126.705 128.599 128.721 132.416 135.014 135.34 135.129 135.481 136.331 131.083 131.647 128.639 123.906 125.452 125.352 123.992 126.292 129.138 133.161 135.078 137.525 142.135 144.277 145.819 142.938 140.351 136.982 134.196 132.629 127.728 125.745 120.649 129.51 133.488 139.123 146.1 150.204 157.378 162.482 170.828 173.456 175.121 176.201 180.347 182.57 182.151 183.512 186.615 189.092 192.101 194.941 201.555 203.396 210.249 216.77 223.655 225.543 226.864 227.161 230.35 230.331 228.054 227.769 230.138 229.524 224.612 226.256 225.107 221.07 221.541 220.947 221.328 223.289 223.709 225.454 223.024 225.352 226.807 232.23 231.477 239.632 247.296 253.053 259.487 267.365 272.806 281.124 288.551 289.242 291.334 294.651 296.573 302.92 305.531 308.761 311
49.1337 42.2674 35.4011 28.5348 21.6684 14.8021 7.93582 1.0695 6.50517 11.9408 17.3765 22.8122 28.2478 33.6835 39.1192 44.5548 43.6174 42.68 41.7426 40.8052 39.8677 38.9303 37.9929 37.0555 33.7815 30.5076 27.2336 23.9597 20.6857 17.4117 14.1378 10.8638 12.9589 15.054 17.149 19.2441 21.3392 23.4342 25.5293 27.6244 28.2899 28.9555 29.6211 30.2867 30.9522 31.6178 32.2834 32.949 32.1479 31.3467 30.5456 29.7445 28.9434 28.1422 27.3411 26.54 20.7355 14.9309 9.12642 3.3219 -2.48262 -8.28714 -14.0917 -19.8962 -17.8261 -15.756 -13.686 -11.6159 -9.5458 -7.47573 -5.40565 -3.33557 0.190599 3.71677 7.24295 10.7691 14.2953 17.8215 21.3476 24.8738 24.3592 23.8446 23.33 22.8153 22.3007 21.7861 21.2715 20.7569 25.7244 30.692 35.6596 40.6272 45.5947 50.5623 55.5299 60.4975 65.7295 70.9615 76.1935 81.4254 86.6574 91.8894 97.1214 102.353 100.132 97.91 95.6883 93.4666 91.2449 89.0232 86.8015 84.5798 87.1771 89.7744 92.3717 94.9689 97.5662 100.164 102.761 105.358 111.167 116.976 122.785 128.594 134.403 140.212 146.021 151.83 151.486 151.142 150.798 150.453 150.109 149.765 149.42 149.076 146.886 144.696 142.506 140.315 138.125 135.935 133.745 131.555 132.842 134.13 135.418 136.706 137.994 139.282 140.57 141.858 139.907 137.957 136.006 134.055 132.105 130.154 128.203 126.253 127.619 128.986 130.353 131.72 133.086 134.453 135.82 137.186 135.489 133.792 132.095 130.398 128.7 127.003 125.306 123.609 126.7 129.79 132.881 135.972 139.063 142.154 145.245 148.336 144.713 141.09 137.467 133.844 130.221 126.598 122.975 119.352 125.839 132.327 138.815 145.302 151.79 158.278 164.765 171.253 172.828 174.402 175.977 177.552 179.126 180.701 182.275 183.85 188.817 193.784 198.751 203.718 208.685 213.652 218.619 223.586 224.187 224.789 225.391 225.992 226.594 227.196 227.797 228.399 227.485 226.572 225.659 224.745 223.832 222.918 222.005 221.092 222.887 224.681 226.476 228.271 230.066 231.861 233.656 235.451 242.709 249.966 257.224 264.481 271.738 278.996 286.253 293.511 295.822 298.133 300.444 302.755 305.067 307.378 309.689 312
51.2255 47.663 38.702 32.3389 26.0914 19.8659 14.6214 7.43767 11.8549 15.5321 19.5589 28.0844 30.6382 33.6315 35.905 43.9892 42.9867 41.4532 42.7605 40.6514 41.2835 41.6877 38.1059 35.9291 30.6217 29.751 29.428 27.2681 23.76 20.0227 16.4487 11.5133 13.3116 13.672 17.1947 15.2934 19.6769 20.8365 23.2946 24.6806 27.646 27.5467 24.3336 24.4806 24.741 25.8578 23.5081 27.8415 29.3809 25.2945 25.0698 26.8157 27.8759 23.6066 21.9525 20.7355 16.836 9.88047 3.86283 -3.41854 -7.87241 -14.5818 -18.2037 -21.3943 -19.7688 -17.514 -15.9644 -14.7595 -11.7507 -8.47465 -4.75783 -3.98011 -0.392305 3.34577 8.11839 9.17613 12.5896 14.7814 18.5185 23.6268 25.1163 25.4658 26.7307 26.341 24.8876 23.838 22.1767 22.9482 25.4631 30.4575 38.1866 42.1272 47.9382 50.6682 56.2792 60.6449 65.0478 72.5902 77.4893 82.4873 85.7028 92.6255 97.4019 100.193 98.1402 98.0953 94.2725 93.8964 93.0611 90.8244 89.9611 87.5643 90.8804 93.0639 97.5262 101.726 104.39 106.004 105.891 108.669 112.45 119.129 127.884 131.609 137.169 141.799 146.993 152.256 151.914 151.167 151.309 151.054 149.245 149.61 149.815 149.123 145.453 145.049 144.483 142.214 138.87 135.923 133.816 133.069 132.372 132.383 133.617 135.568 138.768 139.358 140.461 141.362 139.71 137.286 136.17 135.048 129.892 127.026 129.107 126.984 126.067 130.294 128.194 130.705 133.908 135.976 134.261 135.828 133.96 133.287 131.598 129.359 129.651 127.37 125.681 123.225 126.308 132.877 132.458 134.86 135.986 135.379 139.887 144.138 142.332 137.697 134.394 133.027 128.842 124.613 120.947 118.054 121.788 127.458 134.14 138.813 144.887 153.513 159.35 166.765 167.169 167.623 171.295 173.457 176.536 174.964 178.416 181.085 185.522 191.652 197.17 200.126 209.698 213.033 216.112 219.151 219.722 221.957 222.636 225.837 228.327 226.719 228.283 226.66 226.459 224.203 223.046 222.907 223.782 224.068 222.167 223.563 224.529 227.612 228.02 229.196 230.012 234.094 237.307 239.425 245.57 253.851 257.921 264.416 271.181 279.536 284.542 293.525 296.177 296.01 298.557 301.725 304.192 306.562 309.023 313
55.5293 53.0586 44.6008 36.1431 30.5364 24.9297 19.3678 13.8058 16.4646 19.1233 26.2399 33.3566 33.468 33.5795 38.5015 43.4235 41.825 40.2264 40.362 40.4976 42.4713 44.445 39.6239 34.8027 31.8986 28.9945 29.7855 30.5765 26.6051 22.6337 17.3982 12.1627 12.2264 12.2901 11.8164 11.3428 14.7908 18.2389 19.9878 21.7368 23.9373 26.1378 22.4062 18.6745 19.3862 20.0978 21.4159 22.734 20.9881 19.2423 21.5646 23.887 21.479 19.071 17.001 14.9309 9.88047 4.82999 -2.66449 -10.159 -15.5177 -20.8765 -21.8845 -22.8925 -21.0822 -19.2719 -18.5876 -17.9032 -13.6884 -9.47357 -7.04911 -4.62464 -0.824942 2.97476 5.27895 7.58314 9.66219 11.7412 17.0605 22.3798 24.7334 27.087 28.4768 29.8666 27.8783 25.8899 25.5147 25.1394 27.6812 30.2229 36.925 43.6272 47.2007 50.7742 55.7832 60.7923 67.5056 74.219 78.884 83.5491 88.4554 93.3617 95.6966 98.0316 98.1561 98.2806 96.3034 94.3262 93.4759 92.6256 91.5872 90.5488 93.4511 96.3535 102.419 108.484 110.164 111.845 111.912 111.98 116.631 121.283 127.953 134.624 139.005 143.386 148.034 152.681 151.937 151.192 151.423 151.654 150.554 149.455 149.312 149.17 147.287 145.403 144.758 144.112 140.011 135.91 135.247 134.583 132.61 130.636 132.534 134.431 136.932 139.433 140.149 140.865 138.74 136.615 136.328 136.041 129.969 123.897 125.806 127.715 129.658 131.601 130.646 129.69 133.594 137.498 135.984 134.47 133.627 132.783 130.551 128.32 128.029 127.738 125.289 122.841 129.402 135.964 134.856 133.749 131.176 128.603 134.272 139.941 137.123 134.305 133.257 132.21 127.419 122.628 119.692 116.757 119.673 122.588 127.456 132.324 140.536 148.748 155.513 162.278 161.56 160.843 165.103 169.363 169.295 169.227 173.774 178.32 183.92 189.52 193.027 196.533 204.474 212.415 213.566 214.716 216.921 219.125 222.403 225.682 225.962 226.243 225.582 224.921 223.377 221.834 221.451 221.068 223.143 225.218 225.626 226.035 228.289 230.543 230.331 230.12 233.223 236.326 239.863 243.399 250.568 257.737 261.044 264.351 272.214 280.076 286.807 293.539 293.712 293.886 297.29 300.694 303.22 305.746 309.873 314
55.6628 52.4671 47.0367 39.9472 36.7103 30.0382 25.2767 20.174 22.2013 27.1724 33.26 38.6288 37.8437 38.3381 39.6066 42.8579 41.3596 40.7337 41.4795 40.3437 41.7573 40.4075 36.2549 33.6764 33.0147 31.9331 30.1778 33.8849 29.7121 23.9806 19.2934 12.8121 10.0818 10.3708 7.68805 7.3921 15.1491 13.9421 14.9107 18.793 16.7103 18.7968 16.2696 12.8685 14.1368 14.9443 17.1708 17.6265 16.4204 17.2582 18.6715 20.9582 16.9266 14.8733 11.7292 9.12642 3.2964 -2.66449 -9.98679 -16.8994 -18.4184 -22.8204 -20.6544 -24.3906 -24.1626 -22.1558 -22.7851 -21.0469 -15.755 -12.2629 -9.0948 -5.26918 -1.74367 1.10824 1.86515 5.99015 8.53924 11.9413 16.73 21.1328 21.9294 27.7444 32.4147 33.3922 30.5314 29.5549 28.9439 27.3307 31.122 34.1488 39.4362 45.1272 49.689 52.3156 57.6199 60.9397 65.3809 73.7994 79.1853 84.6109 89.8693 91.5265 92.1147 95.8707 98.5616 96.3642 95.8614 94.756 96.5695 94.2386 93.0248 93.5332 96.5871 102.806 109.297 115.241 117.388 116.073 115.29 115.291 119.009 125.455 130.612 137.639 139.769 145.24 151.344 153.107 154.281 152.193 151.002 152.254 151.656 150.257 150.867 149.217 147.283 146.995 148.057 146.011 141.497 139.336 137.462 136.098 133.251 132.76 129.974 133.293 137.524 137.723 138.912 140.369 138.713 137.782 136.5 137.034 134.591 128.75 129.399 128.447 130.43 130.011 128.256 128.676 133.82 133.603 131.389 133.112 131.519 130.89 130.212 127.281 127.275 125.948 127.012 122.457 127.337 131.382 133.462 132.637 132.731 130.069 132.609 135.743 133.635 132.683 131.366 131.393 127.588 122.498 119.571 115.46 117.086 119.671 121.087 125.835 134.323 142.536 150.218 157.79 158.729 159.041 163.922 165.269 166.646 168.105 171.66 175.555 180.485 185.295 187.291 192.941 199.775 205.006 205.725 210.282 213.498 217.367 221.261 225.526 224.981 224.825 224.792 223.182 222.508 220.625 220.687 219.229 221.702 224.701 224.615 228.507 228.844 231.008 232.987 231.044 235.528 238.992 243.471 247.373 252.049 257.76 260.637 264.286 272.83 279.485 288.243 293.552 294.145 294.993 297.682 299.663 302.343 306.531 309.385 315
55.9378 51.8757 47.8135 43.7514 39.4491 35.1468 30.8445 26.5422 30.8819 35.2216 39.5613 43.901 43.4988 43.0966 42.6944 42.2922 41.7667 41.2411 40.7155 40.1899 38.28 36.37 34.46 32.55 33.7108 34.8717 36.0325 37.1933 31.2604 25.3275 19.3945 13.4616 10.9565 8.45151 5.94647 3.44144 6.54339 9.64535 12.7473 15.8493 13.6525 11.4558 9.25912 7.06241 8.42655 9.7907 11.1548 12.519 13.8966 15.2742 16.6518 18.0294 14.3525 10.6757 6.99879 3.3219 -3.41854 -10.159 -16.8994 -23.6399 -24.2021 -24.7643 -25.3265 -25.8888 -25.4642 -25.0397 -24.6151 -24.1905 -19.6213 -15.0521 -10.4829 -5.91371 -3.33599 -0.758273 1.81945 4.39716 8.26931 12.1414 16.0136 19.8857 24.1438 28.4018 32.6598 36.9178 35.0689 33.2199 31.371 29.522 33.7983 38.0746 42.3509 46.6272 50.2421 53.8571 57.4721 61.0871 67.2335 73.3799 79.5263 85.6728 87.682 89.6913 91.7005 93.7098 94.0788 94.4478 94.8167 95.1857 95.5187 95.8517 96.1847 96.5177 102.888 109.258 115.629 121.999 121.149 120.3 119.451 118.602 124.115 129.628 135.14 140.653 143.873 147.093 150.313 153.532 153.363 153.194 153.024 152.855 151.957 151.059 150.162 149.264 148.925 148.587 148.248 147.91 145.335 142.761 140.186 137.612 136.248 134.884 133.519 132.155 134.084 136.014 137.943 139.872 139.411 138.949 138.488 138.027 135.815 133.602 131.39 129.178 128.799 128.42 128.04 127.661 128.684 129.707 130.731 131.754 130.376 128.998 127.62 126.242 125.2 124.158 123.116 122.074 124.436 126.799 129.162 131.525 131.53 131.535 131.541 131.546 131.303 131.061 130.818 130.576 126.472 122.369 118.266 114.162 115.458 116.754 118.05 119.345 127.835 136.324 144.813 153.302 155.271 157.239 159.207 161.175 164.079 166.983 169.886 172.79 176.93 181.069 185.209 189.349 193.473 197.598 201.723 205.847 210.728 215.609 220.49 225.371 224.389 223.407 222.425 221.443 220.43 219.417 218.404 217.391 220.788 224.184 227.581 230.978 231.226 231.473 231.721 231.968 236.813 241.658 246.503 251.347 254.566 257.784 261.002 264.221 271.557 278.894 286.23 293.566 294.833 296.099 297.365 298.632 302.974 307.316 311.658 316
58.8257 54.1149 50.1979 47.3154 44.0551 40.1974 37.1456 32.9103 35.0236 38.5679 40.7941 44.4313 44.2997 41.5812 40.9313 41.7266 38.8353 37.5872 39.4231 38.6517 35.1057 33.4488 32.5615 31.4236 30.8364 28.5124 30.6113 33.408 27.6798 20.6526 17.8528 14.111 13.1371 12.0058 7.80436 5.09776 5.69099 9.92463 12.5086 12.9055 11.2252 8.9562 6.64087 4.8172 7.36694 7.73271 6.9754 7.41149 7.70251 4.87312 7.83634 10.0462 5.50563 2.27006 -1.45066 -2.48262 -4.63855 -10.5402 -18.0688 -24.2021 -26.3343 -25.5164 -26.9098 -27.3869 -28.1882 -26.4355 -26.8936 -23.1896 -19.6472 -12.9603 -8.50674 -6.55825 -4.31623 0.941838 3.17308 4.0986 7.59393 13.0309 16.3621 18.6387 23.8794 29.8724 33.5084 34.3365 33.0483 30.8081 30.3457 31.7133 34.4073 38.6722 41.8352 47.4659 47.8613 50.8188 56.2672 61.2345 67.9846 72.9805 74.5906 82.5974 81.7118 87.7797 88.3882 91.5489 91.9914 94.897 92.6854 95.5795 97.2502 95.7974 99.0557 99.5022 104.075 109.738 115.242 121.537 122.037 122.341 121.796 121.913 125.943 131.089 136.206 141.375 147.202 149.295 152.421 153.958 154.143 154.229 153.398 152.727 152.103 150.883 150.106 149.311 148.538 151.1 148.657 147.572 145.472 142.716 141.492 139.126 138.576 136.113 135.574 134.311 136.646 136.384 136.936 139.376 138.067 137.147 137.355 137.269 136.814 134.681 133.341 129.91 128.933 129.561 128.252 128.049 128.844 129.527 130.751 130.396 127.133 126.781 125.732 125.539 124.533 123.098 120.991 121.69 123.139 122.687 126.826 128.055 127.037 125.239 125.546 127.348 126.14 127.583 127.236 125.898 123.266 120.559 117.438 112.865 113.405 118.456 118.885 120.05 129.332 136.817 143.285 148.815 152.959 155.024 155.646 158.017 162.597 162.665 165.32 170.025 174.751 176.804 179.65 185.741 188.882 192.799 198.952 201.412 207.031 212.207 215.343 219.353 219.855 220.482 220.151 219.704 220.502 220.147 219.537 219.962 225.803 231.321 230.889 233.45 235.59 238.182 238.693 237.49 239.239 241.945 247.855 255.321 257.362 263.286 264.415 268.274 274.001 280.471 287.287 293.58 295.998 299.078 298.32 300.677 307.161 313.693 313.544 317
59.177 56.3541 53.6167 50.8794 48.0638 45.2481 42.2633 39.2785 40.5964 41.9143 43.438 44.9616 42.5137 40.0657 40.6133 41.161 37.5471 33.9333 35.5234 37.1135 33.8205 30.5276 30.4124 30.2972 26.2252 22.1531 25.8879 29.6226 22.8002 15.9778 15.3691 14.7604 15.1603 15.5601 11.1571 6.75409 8.479 10.2039 10.0828 9.96171 8.20913 6.45656 4.51428 2.57199 4.12335 5.67471 3.98935 2.30399 -1.61199 -5.52797 -1.73253 2.06292 -2.03631 -6.13554 -7.21134 -8.28714 -9.60425 -10.9214 -17.8428 -24.7643 -25.5164 -26.2684 -27.5767 -28.8851 -28.3582 -27.8313 -25.0099 -22.1886 -16.5285 -10.8685 -9.03565 -7.20278 -2.28042 2.64195 3.22099 3.80003 8.86021 13.9204 15.656 17.3917 24.3674 31.343 31.5491 31.7551 30.0757 28.3964 31.1505 33.9046 36.5872 39.2697 43.7871 48.3045 48.0425 47.7804 54.5812 61.3819 66.9815 72.5811 76.0516 79.5221 82.6951 85.8682 87.6281 89.388 92.3671 95.3463 95.6598 95.9733 95.8582 95.7431 99.1149 102.487 106.353 110.219 115.647 121.075 122.728 124.381 124.802 125.223 128.887 132.55 137.323 142.097 146.796 151.496 152.94 154.384 154.824 155.264 153.932 152.599 151.653 150.707 150.032 149.358 151.485 153.612 150.424 147.235 144.954 142.672 141.656 140.641 138.992 137.343 136.905 136.467 136.61 136.754 137.817 138.879 137.112 135.345 135.928 136.511 136.135 135.759 133.2 130.641 130.672 130.703 129.57 128.437 128.892 129.347 129.192 129.038 126.8 124.563 124.7 124.836 123.437 122.039 121.672 121.306 119.94 118.574 121.58 124.586 121.764 118.942 121.046 123.151 123.628 124.106 122.663 121.22 119.984 118.749 115.158 111.568 115.863 120.158 120.456 120.754 129.032 137.31 140.819 144.327 148.568 152.808 153.833 154.858 156.603 158.347 162.804 167.26 169.9 172.539 177.337 182.134 185.067 188 192.489 196.978 202.891 208.805 211.07 213.334 215.445 217.557 217.761 217.965 219.421 220.877 221.705 222.533 230.495 238.457 237.189 235.922 240.406 244.89 243.951 243.011 242.621 242.231 250.763 259.295 264.042 268.789 270.558 272.327 277.187 282.048 287.821 293.594 297.826 302.058 302.39 302.721 311.395 320.069 319.035 318
59.9475 58.6789 57.382 54.4434 51.3371 50.1296 48.3746 45.6467 45.4553 45.4664 45.8791 45.4919 46.7319 41.5458 39.469 40.5953 36.8048 35.4833 35.4921 35.5753 33.2252 30.7842 32.4274 29.1709 27.3662 23.6006 26.5876 25.8373 21.7366 17.5167 19.2489 15.4099 15.0691 14.3115 10.866 8.41042 8.26883 8.63718 8.88297 7.01793 4.1095 3.76721 2.29526 0.326783 -0.246522 0.379998 1.41953 -2.80351 -5.29311 -8.21764 -7.0273 -5.92034 -7.59323 -11.5177 -11.4566 -14.0917 -14.1136 -16.9069 -20.807 -25.3265 -28.5601 -27.5767 -27.0711 -30.3832 -29.5394 -26.9326 -22.5546 -21.1876 -16.3507 -12.6039 -8.14507 -7.84731 -2.62766 -0.00126171 1.26022 3.50147 6.29896 11.4853 10.8133 16.1447 22.0721 26.044 28.39 29.1738 28.9449 30.4181 33.5371 36.0959 39.0392 41.7021 44.8387 49.1432 52.1792 51.8049 57.1697 61.5293 66.1218 70.0526 73.2498 76.4467 78.1606 82.5435 85.0595 87.2271 88.1911 93.1299 96.7907 96.3671 98.7526 99.1757 104.775 105.471 108.918 112.261 115.826 120.612 122.524 125.189 127.411 128.534 130.395 135.121 140.824 142.818 145.255 150.442 151.214 154.809 156.101 154.527 153.168 152.471 152.347 150.802 149.402 149.405 150.374 150.809 149.27 146.898 145.379 143.893 142.874 142.155 141.395 139.784 137.13 138.622 136.732 138.043 137.343 138.383 137.837 135.893 134.505 135.753 135.715 134.654 134.809 131.373 131.603 130.68 129.474 128.825 128.152 128.557 127.535 127.679 126.479 124.719 124.977 124.133 122.962 122.012 122.807 120.922 119.983 118.834 118.72 121.117 120.134 117.572 116.653 118.953 119.821 118.708 118.222 116.542 115.839 114.584 112.62 110.271 115.306 117.863 119.368 121.458 128.071 133.034 136.311 139.839 143.769 147.377 148.4 151.699 154.161 156.741 159.893 164.495 165.699 170.432 175.804 178.527 181.829 184.757 188.71 192.543 196.055 201.754 203.922 207.316 210.944 212.724 214.293 216.226 217.38 220.979 220.538 225.105 230.909 236.364 238.021 238.393 244.628 246.175 245.331 248.533 248.723 251.44 255.629 263.269 264.861 271.313 271.862 276.38 280.73 284.537 290.568 293.608 297.59 301.137 303.025 304.766 312.22 316.737 316.655 319
62.5019 61.0037 59.5056 58.0074 56.5093 55.0111 53.513 52.0148 50.5167 49.0185 47.5204 46.0222 44.5241 43.026 41.5278 40.0297 38.5315 37.0334 35.5352 34.0371 32.5389 31.0408 29.5426 28.0445 26.5463 25.0482 23.5501 22.0519 20.5538 19.0556 17.5575 16.0593 14.5612 13.063 11.5649 10.0667 8.5686 7.07045 5.5723 4.07416 2.57601 1.07787 -0.42028 -1.91843 -3.41657 -4.91472 -6.41286 -7.91101 -9.40916 -10.9073 -12.4054 -13.9036 -15.4017 -16.8999 -18.398 -19.8962 -21.3943 -22.8925 -24.3906 -25.8888 -27.3869 -28.8851 -30.3832 -31.8813 -28.9577 -26.034 -23.1103 -20.1866 -17.2629 -14.3392 -11.4155 -8.49185 -5.56816 -2.64447 0.279214 3.2029 6.12659 9.05028 11.974 14.8977 17.8213 20.745 23.6687 26.5924 29.5161 32.4398 35.3635 38.2872 41.2108 44.1345 47.0582 49.9819 52.9056 55.8293 58.753 61.6767 64.6003 67.524 70.4477 73.3714 76.2951 79.2188 82.1425 85.0661 87.9898 90.9135 93.8372 96.7609 99.6846 102.608 105.532 108.456 111.379 114.303 117.227 120.15 123.074 125.998 128.921 131.845 134.769 137.693 140.616 143.54 146.464 149.387 152.311 155.235 154.512 153.789 153.066 152.343 151.62 150.898 150.175 149.452 148.729 148.006 147.283 146.561 145.838 145.115 144.392 143.669 142.946 142.224 141.501 140.778 140.055 139.332 138.609 137.887 137.164 136.441 135.718 134.995 134.272 133.55 132.827 132.104 131.381 130.658 129.935 129.213 128.49 127.767 127.044 126.321 125.598 124.876 124.153 123.43 122.707 121.984 121.261 120.539 119.816 119.093 118.37 117.647 116.924 116.202 115.479 114.756 114.033 113.31 112.587 111.865 111.142 110.419 109.696 108.973 112.271 115.568 118.865 122.162 125.46 128.757 132.054 135.352 138.649 141.946 145.244 148.541 151.838 155.135 158.433 161.73 165.027 168.325 171.622 174.919 178.216 181.514 184.811 188.108 191.406 194.703 198 201.297 204.595 207.892 211.189 214.487 217.784 221.081 224.379 227.676 230.973 234.27 237.568 240.865 244.162 247.46 250.757 254.054 257.351 260.649 263.946 267.243 270.541 273.838 277.135 280.432 283.73 287.027 290.324 293.622 296.919 300.216 303.514 306.811 310.108 313.405 316.703 320
64.5035 62.9708 59.7585 56.2103 55.0667 53.2653 50.7872 48.9449 46.4848 44.7983 45.7561 45.1546 44.9957 42.3769 42.1668 39.8146 38.2805 34.948 32.6784 32.3342 32.3453 34.5177 31.7527 28.3977 27.6203 24.7141 22.2619 21.1429 20.1675 19.7843 15.6417 13.5071 10.655 9.30748 9.14459 6.09235 6.62579 9.40768 8.94668 7.49206 4.95432 1.83176 0.264342 -0.65821 -3.37383 -3.97035 -6.07897 -6.40701 -6.42667 -10.769 -14.4722 -14.5056 -14.9722 -17.2101 -20.1246 -19.0443 -20.8794 -21.229 -24.6424 -25.945 -26.6446 -29.3022 -28.3782 -28.9577 -28.6099 -25.2582 -23.0297 -19.0935 -15.3887 -14.0985 -12.4735 -9.02107 -5.89685 -1.05448 1.90445 8.32208 11.4917 14.0406 14.7082 16.7108 18.8213 21.4495 25.8141 30.7425 31.4493 32.3138 30.6347 35.4129 36.8753 38.4528 45.6467 51.3152 53.2232 53.8877 55.8552 58.9818 62.5714 65.0781 68.2487 70.3553 75.1919 79.0309 79.704 82.0946 86.145 86.6833 91.5715 96.0596 99.7605 103.832 103.395 105.156 108.762 108.826 112.06 115.427 121.088 126.632 127.644 128.796 131.147 137.586 142.237 146.821 146.389 146.599 150.516 155.66 155.734 155.815 151.697 150.716 153.28 153.697 151.091 150.933 149.791 148.883 148.465 150.632 147.017 146.126 144.681 143.363 143.377 143.156 140.936 139.01 138.473 137.885 138.736 137.092 140.804 137.925 137.509 137.193 135.775 135.853 134.399 133.826 134.6 132.503 130.352 130.929 131.775 131.908 128.977 126.913 126.722 125.659 126.103 124.157 123.387 124.584 126.074 121.467 118.687 119.003 115.688 114.891 111.896 110.68 112.011 111.608 110.437 108.92 112.103 111.701 110.581 111.461 111.095 111.696 114.108 118.528 120.333 126.117 131.492 135.572 137.241 137.503 138.396 141.85 146.165 150.929 156.43 160.047 164.732 164.879 165.594 167.546 170.438 176.19 178.89 180.294 185.376 187.104 191.104 194.972 197.928 199.116 206.297 210.18 214.493 213.919 217.724 221.389 225.3 226.305 230.826 233.155 237.786 240.935 242.118 244.323 246.059 248.153 254.189 258.062 263.597 265.885 267.644 270.612 275.827 280.094 282.1 283.977 289.456 291.947 296.655 301.39 303.736 306.258 308.33 313.55 318.226 321
65.4689 64.9378 59.6755 54.4132 52.9663 51.5195 48.6973 45.875 43.2265 40.578 42.4325 44.287 43.0074 41.7278 40.6637 39.5996 36.2311 32.8626 31.747 30.6313 34.3129 37.9945 33.3727 28.7508 26.5655 24.3801 22.307 20.234 20.3734 20.5129 15.7339 10.9549 8.25342 5.55192 3.83494 2.11796 6.93144 11.7449 11.3274 10.91 6.74782 2.58566 1.59384 0.602007 -1.21199 -3.02599 -3.9645 -4.90301 -7.76683 -10.6307 -12.8691 -15.1075 -16.3139 -17.5203 -17.8564 -18.1925 -18.8791 -19.5656 -22.7834 -26.0013 -27.8603 -29.7194 -27.8767 -26.034 -25.2582 -24.4825 -21.2414 -18.0004 -15.929 -13.8577 -11.704 -9.55029 -4.50739 0.535507 6.98838 13.4413 16.2361 19.0309 18.7775 18.524 20.339 22.1539 28.5233 34.8926 33.5403 32.1879 32.3633 32.5386 32.6548 32.771 42.7097 52.6485 52.2973 51.9461 54.1165 56.287 59.4596 62.6321 64.9857 67.3392 73.0911 78.8431 78.9831 79.1231 80.7881 82.4531 88.9057 95.3583 100.207 105.056 103.456 101.856 102.603 103.349 107.026 110.703 118.985 127.266 126.506 125.747 131.613 137.479 143.791 150.102 146.956 143.81 149.948 156.086 156.964 157.841 153.465 149.088 152.793 156.497 154.455 152.413 151.086 149.759 152.232 154.704 150.92 147.136 145.097 143.057 143.573 144.088 140.665 137.243 136.84 136.437 136.368 136.298 137.853 139.408 139.4 139.391 138.774 138.156 136.852 135.547 134.948 134.348 133.497 132.645 134.347 136.048 131.777 127.505 126.974 126.442 125.663 124.883 126.033 127.183 124.789 122.395 120.654 118.913 115.524 112.134 108.646 105.158 106.809 108.461 106.495 104.529 108.033 111.537 112.019 112.502 113.461 114.419 117.954 121.489 125.781 130.072 136.23 142.388 141.021 139.654 140.704 141.754 147.536 153.318 159.138 164.959 166.493 168.027 167.398 166.768 172.114 177.461 178.267 179.074 182.586 186.099 190.67 195.24 196.088 196.935 204.701 212.468 212.91 213.352 217.524 221.697 223.316 224.935 228.487 232.039 236.522 241.005 241.096 241.186 241.718 242.251 248.863 255.475 260.001 264.526 265.957 267.387 273.571 279.756 280.341 280.927 285.599 290.272 296.418 302.564 304.135 305.706 309.701 313.695 317.848 322
63.7981 62.1736 57.8623 52.6161 49.2666 48.3983 45.5396 42.8051 40.5689 40.8607 41.8757 43.4193 42.9025 41.2942 40.6231 39.3846 35.5781 33.0301 31.0195 28.9285 31.1558 33.168 28.8074 29.104 24.9953 24.1583 24.0675 19.325 16.7646 16.3231 12.4186 8.40271 5.71813 2.78088 0.301284 -1.85643 3.02377 8.8512 13.0187 14.3279 12.64 6.50989 2.69724 1.86222 0.519842 -1.20614 -4.89117 -3.39901 -6.94147 -9.86695 -12.1433 -15.7095 -16.3453 -16.9602 -15.5233 -17.3407 -20.5031 -20.4335 -23.7747 -26.0575 -27.9152 -26.4348 -24.6929 -23.1103 -19.5065 -21.2414 -20.3681 -16.9072 -15.26 -13.5346 -11.8203 -10.0795 -2.07878 3.53548 8.58885 18.5604 18.8573 20.973 21.9827 20.3372 22.6838 27.4128 35.6185 39.0427 36.2805 33.5897 31.0284 29.6643 34.5598 36.9118 45.2814 53.9818 55.9493 52.5261 52.2143 53.5921 58.5736 59.3671 59.2523 64.3231 68.0464 73.0433 75.2668 76.1516 78.725 83.0105 86.1628 94.657 97.2648 99.831 100.775 98.5563 96.8 100.803 103.169 105.98 111.163 118.859 121.428 122.698 128.149 137.818 145.153 153.383 152.896 150.305 153.204 156.511 154.556 154.613 152.727 147.46 150.87 153.55 156.235 153.894 155.039 154.435 156.433 158.776 153.452 149.891 146.587 142.751 140.613 141.082 138.481 135.475 133.744 135.323 136.675 135.504 137.948 139.328 140.601 141.589 141.138 139.773 138.279 137.269 135.778 135.941 138.297 134.361 131.99 134.216 131.965 128.098 129.227 126.978 126.152 125.61 128.541 126.238 125.157 123.323 119.139 117.175 112.865 109.377 106.096 104.775 105.22 105.313 104.64 105.608 108.941 111.373 113.421 114.019 114.119 117.142 121.387 125.206 129.499 134.027 139.722 141.678 138.764 141.806 142.959 146.39 150.73 155.706 160.66 165.584 169.133 171.176 171.42 171.966 175.208 178.731 180.539 180.56 183.686 185.094 187.004 191.786 193.061 194.754 201.943 207.431 210.849 212.784 214.713 219.451 222.232 223.565 228.046 231.854 238.029 241.075 242.542 238.491 238.525 236.349 243.201 250.802 258.233 263.168 265.643 268.916 272.5 279.417 279.632 281.964 285.406 288.596 293.072 299.163 302.209 305.154 309.857 313.998 318.434 323
63.7047 59.4095 55.1142 50.8189 48.048 45.2771 42.5062 39.7352 40.4393 41.1435 41.8476 42.5517 41.7061 40.8606 40.0151 39.1695 36.1835 33.1976 30.2116 27.2256 27.7835 28.3414 28.8993 29.4571 26.6969 23.9366 21.1763 18.416 15.2747 12.1333 8.99189 5.85051 2.93018 0.00984621 -2.91049 -5.83082 0.0633335 5.95748 11.8516 17.7458 14.0899 10.4341 6.77828 3.12244 1.86808 0.613716 -0.640647 -1.89501 -5.49913 -9.10324 -12.7074 -16.3115 -16.3558 -16.4002 -16.4445 -16.4889 -18.8951 -21.3013 -23.7075 -26.1138 -24.632 -23.1502 -21.6684 -20.1866 -19.0935 -18.0004 -16.9072 -15.8141 -14.5128 -13.2114 -11.9101 -10.6087 -2.03664 6.53545 15.1075 23.6796 23.2973 22.915 22.5327 22.1504 27.411 32.6716 37.9322 43.1928 39.0921 34.9914 30.8907 26.7901 33.9213 41.0526 48.1838 55.315 54.2106 53.1062 52.0017 50.8973 53.4997 56.1021 58.7045 61.307 64.2752 67.2435 70.2118 73.1801 78.374 83.5679 88.7618 93.9557 94.2809 94.6061 94.9314 95.2566 96.7566 98.2566 99.7566 101.257 105.855 110.453 115.051 119.649 128.903 138.157 147.411 156.665 156.733 156.801 156.869 156.937 154.161 151.385 148.609 145.833 148.218 150.604 152.989 155.375 157.243 159.111 160.979 162.847 157.747 152.646 147.546 142.446 140.261 138.077 135.892 133.708 133.958 134.209 134.459 134.71 136.979 139.249 141.518 143.787 142.588 141.389 140.19 138.991 138.262 137.534 136.805 136.077 134.23 132.383 130.536 128.69 128.101 127.513 126.925 126.337 125.815 125.294 124.773 124.251 119.844 115.436 111.028 106.62 105.506 104.393 103.279 102.165 104.426 106.687 108.948 111.209 113.373 115.537 117.701 119.865 124.394 128.923 133.452 137.981 139.475 140.969 142.463 143.957 147.492 151.026 154.561 158.095 162.152 166.21 170.267 174.325 175.744 177.163 178.583 180.002 181.024 182.046 183.068 184.089 186.21 188.331 190.452 192.573 197.484 202.395 207.306 212.217 214.711 217.206 219.7 222.194 226.932 231.67 236.408 241.146 238.471 235.797 233.122 230.448 238.288 246.129 253.969 261.809 266.127 270.444 274.761 279.079 281.039 283 284.961 286.921 291.341 295.761 300.181 304.601 309.451 314.301 319.15 324
64.2144 57.8148 55.26 50.5462 47.2063 44.8996 41.0948 36.6653 39.3587 37.6396 39.3819 40.1344 41.5526 40.7222 41.4951 38.9545 34.7789 31.3415 31.372 29.0666 28.6191 27.7339 29.9079 29.8103 25.5918 23.0365 20.1953 17.126 12.151 10.5546 5.86831 3.2983 2.03747 0.448541 0.450393 -0.990725 4.65041 9.75691 14.0241 21.1637 15.6056 13.2811 9.7618 6.78413 6.73165 5.6376 1.81077 -0.39101 -3.19473 -7.04407 -11.9618 -13.3537 -13.9309 -12.2402 -11.8697 -15.637 -18.6278 -18.7719 -19.6913 -22.282 -20.6315 -17.0688 -19.0547 -17.2629 -15.363 -14.1683 -15.8931 -14.5128 -13.7246 -13.2749 -12.1461 -11.1379 -2.53342 7.12626 12.2145 19.8444 19.367 21.6245 22.1082 23.9636 29.2685 33.0292 34.8852 37.9816 33.653 31.2003 30.5063 23.9158 32.6002 35.4951 45.5381 48.4126 46.7956 48.8307 49.5017 48.2024 48.7721 52.3631 56.0339 58.6567 59.7224 66.2017 68.5893 70.2085 74.9582 79.3645 82.9469 88.3857 87.7782 90.1494 90.9153 91.9568 92.9596 95.7401 98.9461 99.6312 104.538 105.762 114.821 116.6 125.114 133.329 141.362 150.76 152.962 152.931 156.946 157.362 152.435 151.842 148.596 149.367 151.067 150.268 153.778 156.855 158.248 158.631 161.017 159.95 152.003 148.691 146.301 142.14 143.378 141.197 137.621 134.375 134.896 135.018 134.145 133.916 134.101 136.415 140.798 142.517 143.96 143.821 142.037 140.713 137.898 138.673 138.115 136.675 135.413 134.236 130.699 129.282 127.105 126.816 127.762 127.13 126.323 126.756 128.202 125.18 122.3 115.473 111.789 107.158 101.187 99.7111 100.955 99.0179 101.244 102.851 107.147 110.948 114.612 115.61 119.33 122.587 127.63 130.046 134.264 138.901 139.322 142.672 142.024 146.109 148.176 150.29 155.809 161.007 163.229 169.45 173.293 177.473 175.705 176.52 177.623 180.875 181.855 182.042 181.488 183.085 182.647 184.03 189.157 193.182 196.119 201.428 204.64 211.65 213.865 215.488 218.833 223.067 224.132 228.257 235.533 241.216 241.653 236.197 235.788 235.061 241.8 249.891 255.084 260.451 265.657 269.997 273.267 276.384 276.877 278.769 283.917 285.246 292.623 300.319 303.251 304.479 308.011 314.233 316.62 325
63.11 56.2201 53.2467 50.2734 47.3978 44.5222 39.0588 33.5954 33.8656 34.1358 35.9265 37.7171 39.1504 40.5838 39.6616 38.7395 34.1125 29.4855 30.1966 30.9076 29.017 27.1265 28.645 30.1635 26.15 22.1364 18.9862 15.8359 12.406 8.97602 4.86106 0.7461 0.816668 0.887235 2.3683 3.84937 8.70285 13.5563 19.069 24.5816 20.3548 16.1281 13.2869 10.4458 10.5537 10.6615 5.88724 1.11299 -1.93595 -4.9849 -7.69039 -10.3959 -9.23807 -8.08026 -11.4327 -14.7852 -15.5138 -16.2424 -17.3463 -18.4502 -14.7189 -10.9875 -12.6634 -14.3392 -12.3378 -10.3363 -11.7739 -13.2114 -13.2749 -13.3384 -12.5028 -11.6672 -1.97504 7.71708 11.8631 16.0092 18.1716 20.3339 23.0554 25.7768 29.5818 33.3867 33.0786 32.7704 30.0898 27.4091 24.2253 21.0415 25.4896 29.9377 35.724 41.5102 43.0328 44.5553 45.0315 45.5076 47.0658 48.6241 52.3153 56.0065 60.5831 65.1598 66.1984 67.237 71.1991 75.1611 78.9884 82.8157 84.2542 85.6927 87.1749 88.657 90.9403 93.2236 95.6147 98.0058 99.5389 101.072 107.311 113.551 121.026 128.502 136.678 144.855 146.959 149.062 153.425 157.788 155.044 152.3 152.6 152.9 151.416 149.932 154.134 158.336 158.243 158.151 157.602 157.053 150.894 144.735 143.284 141.834 143.076 144.318 139.68 135.043 135.435 135.828 134.475 133.121 133.352 133.582 137.414 141.246 143.749 146.252 144.343 142.434 141.123 139.813 138.542 137.272 136.68 136.088 132.981 129.874 127.996 126.118 127.021 127.924 128.071 128.217 127.163 126.108 120.809 115.51 111.602 107.695 101.362 95.0293 95.4498 95.8702 97.443 99.0157 104.851 110.687 113.185 115.682 120.496 125.31 128.24 131.169 135.495 139.82 142.097 144.374 146.317 148.26 148.907 149.553 156.736 163.918 168.304 172.691 176.656 180.622 178.249 175.876 178.812 181.749 181.894 182.039 182.059 182.08 180.904 179.729 186.76 193.791 197.126 200.461 205.772 211.082 212.426 213.77 218.855 223.941 224.392 224.844 233.065 241.286 238.941 236.597 238.135 239.674 246.664 253.654 256.373 259.092 264.321 269.55 271.619 273.689 274.114 274.538 279.055 283.571 294.224 304.878 304.617 304.356 309.261 314.165 320.083 326
65.1531 58.542 56.1072 50.0006 45.492 41.557 35.8389 30.5255 32.2117 32.1525 33.2929 35.2998 38.8983 38.0899 37.2623 38.5244 35.8337 32.9675 32.0121 32.7486 32.707 29.9281 30.1586 30.5166 26.1099 22.0996 20.2716 14.5458 9.43508 6.71237 4.36802 -1.8061 0.740439 2.73643 3.65955 8.68946 12.7896 18.0149 24.2269 27.9995 24.1018 20.3607 16.2477 14.1075 13.0961 10.8033 7.04663 2.61699 -0.232175 -2.58227 -4.22802 -7.43808 -6.18722 -8.43058 -10.1894 -13.9334 -14.8954 -14.0883 -14.7184 -14.6185 -11.0088 -10.3134 -11.0075 -11.4155 -8.67189 -9.94331 -7.40742 -11.9101 -12.326 -12.5028 -10.0548 -12.1964 -4.62601 2.76184 8.66775 12.174 15.9847 19.6025 22.5532 27.59 28.1763 29.6312 28.4502 27.5593 25.1092 23.1148 21.5438 18.1672 22.2029 25.7184 27.904 34.6078 37.318 39.2335 42.487 42.8128 45.9535 47.018 49.46 53.3562 55.6662 60.5799 61.2215 64.2655 67.0017 70.823 73.7583 77.2457 79.7815 81.2797 83.2295 85.3573 86.4108 90.8149 92.8848 96.3804 98.9079 101.088 105.295 110.501 119.397 124.375 130.646 138.95 144.43 147.452 153.422 158.213 156.43 155.802 157.759 156.434 154.116 155.282 158.566 159.816 159.343 157.215 154.827 154.156 148.926 145.488 142.997 141.528 142.258 141.559 135.26 135.71 134.761 134.891 134.868 132.327 133.404 134.351 135.387 139.976 140.968 144.272 143.489 144.156 142.747 140.993 139.612 137.87 136.812 135.425 132.209 130.466 131.543 128.201 130.17 128.717 129.035 128.477 127.885 127.036 120.232 116.938 115.58 108.232 105.393 97.1008 95.8867 92.7226 94.5677 99.443 104.827 110.426 113.083 118.072 122.308 128.033 130.008 133.689 135.169 140.74 143.41 145.742 148.282 150.412 153.452 155.353 160.448 166.83 173.28 175.511 179.638 183.771 182.262 180.542 180.236 182.622 180.85 181.911 181.647 181.075 179.033 183.634 189.024 194.4 196.856 201.47 205.336 210.515 210.786 215.794 219.564 224.814 227.979 229.2 233.056 241.356 237.99 240.88 243.333 244.288 250.224 253.146 253.838 257.734 262.029 265.944 268.019 270.993 274.078 274.399 278.971 281.896 289.35 298.522 302.767 304.233 309.822 315.11 320.953 327
66.432 60.8639 55.2959 49.7278 44.1598 38.5917 33.0237 27.4557 28.8124 30.1691 31.5258 32.8825 34.2392 35.596 36.9527 38.3094 37.3794 36.4495 35.5195 34.5896 33.6597 32.7297 31.7998 30.8698 26.4663 22.0628 17.6593 13.2557 8.85223 4.44872 0.0452054 -4.35831 0.113656 4.58562 9.05758 13.5295 18.0015 22.4735 26.9454 31.4174 28.0054 24.5933 21.1813 17.7692 14.3571 10.9451 7.53304 4.12099 1.97067 -0.179644 -2.32996 -4.48028 -6.6306 -8.78091 -10.9312 -13.0815 -12.5078 -11.9341 -11.3604 -10.7867 -10.213 -9.63927 -9.06556 -8.49185 -9.02107 -9.55029 -10.0795 -10.6087 -11.1379 -11.6672 -12.1964 -12.7256 -7.45949 -2.19339 3.07272 8.33882 13.6049 18.871 24.1371 29.4032 27.6395 25.8757 24.1119 22.3481 20.5843 18.8205 17.0567 15.293 18.3961 21.4992 24.6023 27.7054 30.8086 33.9117 37.0148 40.1179 42.7649 45.4119 48.0589 50.7059 53.353 56 58.647 61.294 63.8894 66.4849 69.0803 71.6758 74.2712 76.8666 79.4621 82.0575 85.2319 88.4062 91.5806 94.755 97.9293 101.104 104.278 107.452 113.851 120.249 126.647 133.046 139.444 145.842 152.241 158.639 158.971 159.304 159.636 159.968 160.3 160.633 160.965 161.297 158.788 156.278 153.769 151.259 148.75 146.241 143.731 141.222 140.011 138.8 137.588 136.377 135.166 133.955 132.744 131.533 133.326 135.119 136.912 138.705 140.498 142.292 144.085 145.878 144.025 142.173 140.32 138.468 136.615 134.763 132.91 131.058 130.671 130.284 129.898 129.511 129.124 128.738 128.351 127.964 123.166 118.367 113.568 108.77 103.971 99.1723 94.3736 89.575 94.7226 99.8702 105.018 110.165 115.313 120.461 125.608 130.756 133.482 136.208 138.934 141.659 144.385 147.111 149.837 152.563 156.858 161.152 165.447 169.741 174.036 178.33 182.625 186.919 186.063 185.207 184.351 183.495 182.639 181.783 180.926 180.07 183.805 187.54 191.274 195.009 198.743 202.478 206.213 209.947 213.882 217.817 221.752 225.687 229.622 233.556 237.491 241.426 243.295 245.164 247.032 248.901 250.77 252.638 254.507 256.376 259.356 262.337 265.318 268.298 271.279 274.26 277.24 280.221 286.193 292.166 298.138 304.111 310.083 316.055 322.028 328
66.683 61.2557 54.9074 48.7917 44.3957 38.0844 35.9785 31.3105 31.7191 29.2313 31.2414 31.7537 32.6382 34.4075 38.5453 38.0944 35.9569 37.1287 34.2798 33.7125 35.22 34.6822 29.8897 27.7494 23.7152 14.9065 11.2017 6.23123 2.62566 0.496851 -5.03274 -6.91051 -3.20647 1.11546 4.54156 8.54798 12.2512 19.5309 22.2138 26.9513 24.7872 24.4077 19.7683 17.173 14.0831 9.87167 6.54928 5.62499 3.47627 2.19297 -0.0885757 -1.72289 -3.42928 -6.46329 -7.14428 -9.50569 -11.9161 -9.53629 -8.89466 -5.44334 -6.35936 -5.75812 -5.21087 -5.56816 -5.26944 -5.05675 -5.98787 -6.43583 -6.86159 -10.373 -7.87177 -7.45949 -4.63908 1.20353 7.53805 13.5179 15.5271 20.8268 26.2204 31.2164 28.7591 25.3856 22.1298 23.6373 23.6296 23.4343 19.2943 17.2856 21.9056 27.4291 27.8391 29.4256 31.9161 32.6181 37.0402 37.4231 39.4942 42.344 45.5101 48.4319 51.7187 55.6788 57.3309 58.2709 58.5653 59.7195 62.5847 66.4577 69.4382 73.0614 76.5598 78.7577 80.0773 82.6723 88.4314 93.425 98.3725 101.342 101.407 107.627 116.757 124.159 127.448 132.478 139.385 145.392 153.235 159.065 156.743 158.46 158.019 161.04 159.659 159.769 159.384 159.936 157.456 154.786 152.659 147.768 146.33 143.111 140.152 140.916 139.316 140.187 141.098 136.587 135.687 134.812 133.334 133.743 133.631 136.277 137.387 140.255 144.306 145.272 147.463 147.599 146.883 146.119 143.21 140.98 139.055 139.223 136.247 133.116 130.846 130.501 128.752 128.18 127.798 129.648 128.782 128.893 122.46 118.488 112.887 109.62 103.938 99.9542 97.4764 96.3736 103.591 109.716 113.272 117.536 120.806 124.455 130.647 133.479 135.653 135.93 139.411 139.742 143.607 146.392 151.035 156.283 159.682 161.529 165.875 170.02 174.543 180.038 184.281 190.068 188.86 185.879 185.476 186.997 183.401 182.76 181.543 183.656 188.268 194.753 195.299 198.217 199.849 202.66 207.012 209.38 216.056 222.674 225.457 228.874 231.707 233.075 234.809 239.43 237.707 240.269 241.061 243.372 248.421 251.244 252.488 255.017 258.942 263.901 268.146 272.223 274.867 275.31 276.859 281.538 285.091 290.206 295.635 301.296 308.272 317.859 323.516 329
67.8237 61.6475 54.7515 47.8556 42.7163 37.5771 36.3712 35.1654 31.7295 28.2936 29.4593 30.625 31.922 33.219 35.5491 37.8793 37.8436 37.8079 35.3217 32.8354 34.735 36.6346 30.6318 24.629 16.1896 7.75026 3.47848 -0.793296 -2.12416 -3.45502 -6.45887 -9.46272 -5.9087 -2.35469 0.605858 3.56641 10.0774 16.5883 19.5367 22.4852 23.3537 24.2222 20.3995 16.5768 12.6875 8.79824 7.96361 7.12899 5.84728 4.56558 2.80004 1.0345 -1.55558 -4.14566 -5.03774 -5.92983 -6.53415 -7.13846 -3.61922 -0.0999732 -0.988469 -1.87696 -2.26072 -2.64447 -1.60384 -0.563214 -1.41307 -2.26294 -5.67085 -9.07876 -5.63608 -2.19339 1.20353 4.60044 11.6487 18.697 20.7397 22.7825 27.9061 33.0296 28.9626 24.8955 24.911 24.9264 26.4872 28.048 23.6631 19.2782 26.3186 33.359 32.2524 31.1457 31.2352 31.3246 33.0264 34.7282 37.0022 39.2761 42.717 46.1578 50.7577 55.3576 55.3027 55.2478 54.101 52.9542 57.0969 61.2396 65.2479 69.2563 72.3571 75.458 76.1982 76.9384 84.5167 92.095 96.8372 101.579 104.691 107.802 117.936 128.07 129.99 131.911 138.426 144.941 152.216 159.49 158.554 157.617 159.865 162.112 160.509 158.905 158.74 158.575 155.935 153.295 148.785 144.276 142.128 139.981 140.295 140.61 141.092 141.575 139.186 136.797 136.233 135.668 135.811 135.953 136.694 137.435 139.62 141.805 145.028 148.252 148.787 149.321 149.693 150.065 146.778 143.492 143.588 143.684 139.429 135.174 132.945 130.717 128.783 126.849 128.704 130.559 130.19 129.821 124.215 118.609 114.54 110.471 105.604 100.736 101.954 103.172 111.367 119.563 122.235 124.907 126.678 128.449 132.325 136.202 135.927 135.652 136.739 137.825 141.749 145.673 152.838 160.003 160.955 161.906 166.102 170.298 176.022 181.745 187.481 193.217 189.884 186.552 188.526 190.5 187.118 183.737 185.49 187.242 194.604 201.966 201.695 201.424 202.133 202.842 205.827 208.813 218.172 227.532 229.796 232.06 232.327 232.593 235.013 237.434 236.404 235.374 236.609 237.844 243.847 249.85 251.754 253.659 259.562 265.465 270.806 276.147 276.254 276.36 279.607 282.854 285.55 288.245 293.363 298.481 309.072 319.663 324.831 330
