ncols 65
nrows 65
xllcorner 0
yllcorner 0
cellsize 10
0 1 2 3 4 5 6 7 8 9 10 11 12 13 14 15 16 17 18 19 20 21 22 23 24 25 26 27 28 29 30 31 32 33 34 35 36 37 38 39 40 41 42 43 44 45 46 47 48 49 50 51 52 53 54 55 56 57 58 59 60 61 62 63 64 
1 2.70398 6.3667 8.56003 8.87272 4.54999 5.89406 6.17211 7.17224 5.19648 7.38642 9.16607 11.9208 12.3672 10.1169 12.1326 14.8506 17.1807 16.9038 17.9613 20.696 20.3411 22.563 22.4308 23.1617 25.3734 27.662 26.8104 28.1786 26.9214 28.3218 30.3952 32.5004 36.137 33.6351 36.1396 35.8666 37.6424 40.0699 41.1636 42.7762 43.6909 44.935 46.2742 47.3612 46.8978 47.622 47.0478 49.9098 50.7203 50.8911 53.2718 52.5711 53.6845 56.5312 57.685 57.183 60.4386 61.9785 62.4118 63.5846 65.7449 66.6209 66.4204 65 
2 6.3667 10.7334 12.2394 13.7454 9.76679 5.78813 6.06631 6.34449 5.55866 4.77284 8.30722 11.8416 9.03772 6.23384 9.96748 13.7011 14.7544 15.8077 18.5999 21.392 22.2591 23.1261 22.7248 22.3234 25.8237 29.324 28.8406 28.3571 27.5004 26.6437 29.8223 33.0008 33.1356 33.2703 34.5017 35.7331 38.9365 42.1398 43.8461 45.5523 46.7111 47.87 49.2962 50.7225 49.9832 49.244 50.5317 51.8195 51.8009 51.7823 52.4623 53.1423 56.1024 59.0625 58.7143 58.3661 62.1616 65.9571 66.5631 67.1691 69.2055 71.2418 68.6209 66 
3 7.48136 12.2394 15.0519 18.6182 16.1725 9.93903 8.41815 5.51673 5.78991 6.47947 10.0365 11.7624 9.10877 8.88829 10.7678 12.5517 15.2773 16.4504 17.8141 22.0881 20.5336 22.4208 20.6726 21.4851 25.1119 27.0023 25.4916 28.5357 28.1421 29.0008 31.5402 33.5013 31.7656 34.0021 35.5359 35.5997 39.6868 42.7126 47.1502 48.3285 50.7989 51.0724 51.6828 54.0837 51.6837 52.893 53.3236 53.7293 55.2383 53.372 53.1273 53.7134 54.2242 58.2854 59.9999 59.5491 65.3405 66.7461 69.9129 70.7537 69.6644 71.2055 68.9281 67 
4 8.87272 13.7454 18.6182 23.4909 18.7904 14.0899 9.38945 4.68898 6.43754 8.1861 9.93466 11.6832 11.613 11.5427 11.4725 11.4023 14.2477 17.0932 19.9386 22.7841 22.2498 21.7155 21.1811 20.6468 22.6637 24.6806 26.6974 28.7143 30.0361 31.358 32.6798 34.0017 34.3678 34.734 35.1001 35.4662 39.3758 43.2854 47.195 51.1046 52.6897 54.2748 55.8599 57.445 56.9935 56.542 56.0905 55.639 55.3004 54.9618 54.6232 54.2846 55.8964 57.5083 59.1202 60.7321 64.1337 67.5352 70.9368 74.3383 72.7537 71.1691 69.5846 68 
5 7.52833 10.6781 14.9428 18.7904 14.5438 11.7781 7.96456 3.86122 4.8141 4.25677 6.25503 9.78522 9.93493 8.17459 10.7716 10.2528 12.2059 16.9809 18.4008 20.1003 18.2166 19.3045 18.8715 19.8085 23.4344 26.4549 26.3468 28.1978 29.2354 30.1834 32.0025 34.5021 32.7722 33.9451 35.3526 38.8763 42.9411 47.6713 51.0877 53.8808 55.1709 58.0675 59.4268 58.7696 58.7574 57.0883 60.1478 57.5488 60.3838 58.0866 56.8435 56.8062 60.7786 60.162 61.4368 61.9152 65.1151 66.4809 69.6726 72.9368 72.9133 71.809 69.6929 69 
6 6.80542 7.61084 10.8504 14.0899 11.7781 9.46634 6.2499 3.03346 1.68045 0.327435 4.10733 7.88722 6.34684 4.80645 6.95492 9.10339 12.9861 16.8687 17.1427 17.4166 17.1551 16.8936 17.9319 18.9703 23.5998 28.2293 27.9553 27.6814 28.3451 29.0087 32.0056 35.0025 34.0794 33.1562 37.7212 42.2863 47.1717 52.0571 54.357 56.6569 59.2586 61.8603 60.9773 60.0943 58.8645 57.6347 58.5466 59.4585 60.3349 61.2113 60.2696 59.3278 61.0717 62.8156 62.9569 63.0982 64.2624 65.4267 68.4809 71.5352 71.992 72.4489 71.2244 70 
7 6.76622 6.97767 7.58793 9.38945 9.9648 6.2499 4.06102 2.20571 -0.180184 1.53101 2.37084 5.98923 7.80032 5.12716 6.24082 7.95395 10.1081 13.1478 14.4968 14.7328 14.5466 15.7825 16.928 18.132 23.3076 25.1002 26.8126 27.165 28.5166 30.1674 33.4253 35.503 37.7326 37.8555 42.8104 45.6963 50.1289 53.8574 57.0385 59.4331 59.8605 62.1684 62.0931 61.419 59.9198 60.3228 60.8901 61.3683 61.053 62.518 61.1848 61.8495 62.529 63.8666 62.831 64.2812 65.1794 66.2624 67.9415 70.1337 71.0679 71.4075 73.4945 71 
8 7.17224 6.34449 5.51673 4.68898 3.86122 3.03346 2.20571 1.37795 2.05627 2.73459 3.41291 4.09123 4.76955 5.44787 6.12619 6.80451 8.11566 9.4268 10.7379 12.0491 13.3602 14.6714 15.9825 17.2937 19.6324 21.9711 24.3098 26.6485 28.9872 31.326 33.6647 36.0034 39.2791 42.5549 45.8306 49.1063 52.3821 55.6578 58.9335 62.2093 62.3429 62.4765 62.6101 62.7436 62.8772 63.0108 63.1444 63.278 63.5513 63.8246 64.0979 64.3711 64.6444 64.9177 65.191 65.4642 66.2812 67.0982 67.9151 68.7321 69.5491 70.3661 71.183 72 
9 8.81657 6.34578 7.17213 7.81584 6.57108 5.18131 4.19496 2.05627 1.76107 4.34034 4.27905 5.11245 6.63789 6.76446 6.4424 5.65508 7.08772 8.7947 10.622 10.3742 13.1467 16.1133 15.75 17.483 18.8613 20.9561 24.2352 27.697 28.5517 29.9839 32.7482 36.5038 40.0991 43.0249 44.8989 48.2066 52.2968 54.7028 57.7171 61.8433 63.5603 62.9946 60.7295 61.8009 62.3414 62.0614 62.596 65.1878 64.5744 64.7586 65.6347 65.1089 65.5371 67.3417 66.2483 67.191 67.9378 68.298 68.6214 70.5824 67.7541 68.7509 71.0124 73 
10 8.17354 6.34708 8.6449 10.9427 9.13594 7.32916 5.03188 2.73459 4.34034 5.94608 6.03988 6.13367 7.10736 8.08104 6.29334 4.50564 6.33412 8.16259 8.43097 8.69935 13.1273 17.5553 17.6137 17.6722 18.8066 19.941 24.3433 28.7456 28.6937 28.6418 32.823 37.0042 40.2496 43.4949 45.4009 47.3069 50.5273 53.7478 57.6125 61.4773 62.495 63.5127 62.1854 60.8581 60.9851 61.1121 64.1048 67.0975 66.3951 65.6927 65.7697 65.8466 67.8062 69.7657 69.3417 68.9177 69.2077 69.4978 70.9653 72.4328 69.7842 67.1357 70.5678 74 
11 11.6115 10.4727 12.4576 14.0696 11.068 8.9865 9.80054 3.41291 4.15915 6.03988 6.92385 7.15489 7.80262 6.63624 3.42176 3.35621 3.95461 5.97039 6.44253 7.02448 11.3577 14.6277 16.9163 17.8615 20.282 22.1939 25.9213 29.7941 30.0574 31.5328 35.3278 37.5047 38.5401 42.6256 44.0046 46.4071 50.9065 53.4371 57.7244 61.1113 62.2583 61.6858 59.6482 59.9153 62.6963 63.0284 64.476 69.0073 69.2734 67.4061 64.1143 66.5844 68.6426 69.8062 68.9505 70.6444 73.5161 71.875 73.2676 74.2831 74.2191 71.6012 74.2334 75 
12 13.2991 14.5982 15.8973 17.1964 13.9201 10.6438 7.36754 4.09123 5.11245 6.13367 7.15489 8.17611 6.68378 5.19144 3.69911 2.20677 2.99248 3.77819 4.5639 5.34961 8.52491 11.7002 14.8755 18.0508 21.2487 24.4467 27.6446 30.8426 32.6332 34.4238 36.2145 38.0051 39.8807 41.7562 43.6318 45.5074 49.3169 53.1264 56.9359 60.7453 60.3021 59.8589 59.4157 58.9725 61.9587 64.9448 67.9309 70.917 70.0183 69.1196 68.2208 67.3221 68.5844 69.8466 71.1089 72.3711 73.3117 74.2523 75.1928 76.1334 76.1001 76.0667 76.0334 76 
13 11.0543 13.0369 13.1476 15.7479 12.194 10.9983 6.21876 4.76955 4.13427 3.6126 5.78756 6.68378 9.58735 6.03832 5.06373 1.05734 4.7522 6.62854 5.62638 6.06433 8.07648 10.5076 15.1741 18.2401 22.0663 27.3877 30.0123 30.4838 35.1558 36.2115 37.6165 38.5055 41.7487 45.4733 45.4588 46.5416 48.4456 52.8017 56.1366 60.3794 59.5516 62.4637 61.8913 61.4591 63.4952 65.312 68.3313 72.8268 73.2984 72.2225 72.3073 70.2208 70.6772 70.4478 72.6201 74.0979 74.2001 73.5934 74.5403 77.0098 78.5122 76.456 75.9341 77 
14 12.7378 11.4755 12.8874 14.2994 12.8261 11.3528 8.40035 5.44787 3.2697 1.09152 3.14148 5.19144 6.03832 6.88519 3.39655 -0.092099 4.6934 9.47889 8.12897 6.77904 8.04702 9.31501 13.8722 18.4293 24.379 30.3286 30.2268 30.125 34.062 37.9991 38.5025 39.0059 44.0981 49.1903 48.383 47.5758 50.0264 52.477 56.2452 60.0134 62.5409 65.0684 64.507 63.9456 64.8125 65.6793 70.2079 74.7365 75.031 75.3254 74.2225 73.1196 72.0843 71.049 73.4368 75.8246 74.3796 72.9345 75.4104 77.8862 77.3658 76.8453 77.4227 78 
15 14.2065 12.5883 13.1751 12.8508 9.59304 10.2281 6.68027 6.12619 4.07088 2.79858 1.40704 3.69911 3.17902 3.39655 2.08636 -1.24153 2.62369 6.19382 6.35874 7.49375 10.5912 11.4116 13.6557 18.6186 23.4865 27.2181 26.6975 29.7662 33.5185 36.3531 39.2411 39.5064 43.3317 47.0079 46.4425 48.6099 52.3601 53.4699 55.1605 59.6474 62.775 64.5843 66.894 66.4322 69.2265 69.7083 74.0254 76.6463 75.7175 77.031 77.3597 76.0183 75.8544 75.0733 77.2504 77.5513 78.58 76.1965 78.6015 78.7626 77.262 78.3324 78.2418 79 
16 14.8506 13.7011 12.5517 11.4023 10.2528 9.10339 7.95395 6.80451 5.65508 4.50564 3.35621 2.20677 1.05734 -0.092099 -1.24153 -2.39097 0.258889 2.90875 5.55861 8.20847 10.8583 13.5082 16.158 18.8079 21.4578 24.1076 26.7575 29.4073 32.0572 34.7071 37.3569 40.0068 42.4161 44.8254 47.2348 49.6441 52.0534 54.4628 56.8721 59.2814 61.6907 64.1001 66.5094 68.9187 71.3281 73.7374 76.1467 78.5561 78.6463 78.7365 78.8268 78.917 79.0073 79.0975 79.1878 79.278 79.3683 79.4585 79.5488 79.639 79.7293 79.8195 79.9098 80 
17 14.9217 14.0811 14.3049 15.6651 15.9838 13.6457 9.44695 7.97771 10.0344 10.2629 8.50935 4.46526 2.19684 0.987175 1.1217 0.258889 2.42693 6.13861 8.56023 9.12567 12.0931 16.1885 19.2258 21.0249 22.1086 23.279 26.1067 27.8794 30.7555 31.8741 35.8793 40.5072 41.7319 44.4172 47.5497 50.3617 52.8837 55.206 57.9427 59.3758 59.7241 63.0178 66.5219 69.4095 72.424 74.543 76.7095 78.1467 76.941 75.7436 78.1942 78.2301 78.4146 78.5207 79.756 79.4533 79.4973 79.2697 79.1486 79.1596 77.0242 80.2115 79.6353 81 
18 16.2305 14.461 17.1945 19.928 19.058 18.1879 13.6694 9.15091 12.5855 16.0201 11.3719 6.72375 4.3951 2.06645 2.4876 2.90875 6.13861 9.36848 9.70568 10.0429 14.4558 18.8688 21.0554 23.242 22.8462 22.4503 24.4009 26.3515 27.6964 29.0412 35.0244 41.0076 42.5083 44.009 47.5441 51.0792 53.5143 55.9493 57.7097 59.4701 60.7028 61.9355 65.9179 69.9003 72.6245 75.3487 76.543 77.7374 75.244 72.7507 75.1469 77.5431 77.7434 77.9438 78.7862 79.6286 79.3547 79.0808 78.8805 78.6802 79.6418 80.6035 81.3017 82 
19 19.7125 19.3439 21.9892 24.1909 22.1631 19.0817 15.6198 10.3241 9.64098 13.6946 12.0009 8.98224 7.93254 5.89552 5.18881 5.55861 5.92673 9.70568 8.10684 10.9601 14.5824 19.3227 22.6258 25.459 26.1398 23.9681 25.9234 24.8236 27.3699 30.8467 34.3888 41.5081 44.3611 45.6352 46.1527 51.7968 54.0349 56.0179 57.8432 59.5645 61.2979 63.6029 66.9873 70.3911 73.9096 74.6245 75.6511 77.3281 76.189 74.6473 75.5725 76.8561 78.8821 78.009 76.1282 79.8039 79.0484 78.9655 81.1771 78.2007 80.1443 80.7321 82.3476 83 
20 22.1134 24.2269 26.3403 28.4537 24.2146 19.9755 15.7364 11.4973 11.4332 11.369 11.3049 11.2407 10.4827 9.7246 8.96653 8.20847 9.12567 10.0429 10.9601 11.8773 15.827 19.7767 23.7264 27.6761 26.581 25.4859 24.3908 23.2957 27.9739 32.6521 37.3303 42.0085 44.6349 47.2614 49.8879 52.5143 54.3004 56.0866 57.8727 59.6588 62.4646 65.2703 68.0761 70.8819 72.3911 73.9003 75.4095 76.9187 76.7313 76.5439 76.3565 76.1691 77.1216 78.0742 79.0267 79.9792 79.4147 78.8503 78.2858 77.7213 79.291 80.8607 82.4303 84 
21 23.8962 26.3839 27.3185 26.3641 22.1072 17.7669 16.0645 12.6705 12.3195 12.9243 13.5976 12.8053 13.694 14.2766 12.0954 10.8583 14.3114 15.0857 15.9846 15.827 20.3266 21.404 24.4444 29.8931 27.0253 26.8171 28.9749 27.5411 31.5786 32.7641 36.9902 42.5089 43.2206 47.4135 48.9167 52.3915 54.4633 55.3187 56.4865 59.7532 63.0161 62.3708 66.6268 70.0761 73.3167 73.4467 73.7997 76.5094 76.5934 75.8349 75.9159 76.6221 76.108 76.9387 79.618 80.1545 76.493 79.315 78.5476 79.376 80.6009 82.2998 83.04 85 
22 25.2705 28.541 26.4077 24.2744 19.9164 15.5584 14.701 13.8437 14.1616 14.4796 14.4247 14.3699 16.5992 18.8285 16.1684 13.5082 16.8184 20.1286 19.9526 19.7767 21.404 23.0313 27.5707 32.1102 30.1293 28.1484 29.9674 31.7865 32.3313 32.8761 37.9427 43.0093 45.2875 47.5656 49.9172 52.2688 53.4097 54.5507 57.1991 59.8475 59.6594 59.4712 64.3708 69.2703 71.1317 72.993 74.5466 76.1001 75.613 75.1258 76.1004 77.075 76.4391 75.8033 78.0665 80.3298 80.0547 79.7797 80.4052 81.0307 82.3849 83.739 84.8695 86 
23 25.3049 25.2942 24.9209 22.1847 21.2424 16.8505 16.3433 15.0169 14.3547 15.6621 15.0882 15.9344 17.3562 18.491 16.5048 16.158 18.2949 21.6853 22.8859 23.7264 23.7098 27.5707 31.0899 34.3272 35.4054 33.2796 36.1186 36.0318 38.3565 37.5099 38.9466 43.5097 44.4987 47.7912 50.0302 52.146 53.8293 55.2902 59.2669 59.9418 62.4696 61.6594 66.8507 68.4646 69.9122 72.2316 73.7342 75.6908 72.4116 75.8785 78.0993 77.5279 76.451 77.5669 79.8126 80.5051 82.3631 81.145 81.5024 82.6855 83.4675 84.9545 86.685 87 
24 23.0238 22.0475 21.0713 20.095 19.1188 18.1426 17.1663 16.1901 16.5173 16.8445 17.1718 17.499 17.8262 18.1535 18.4807 18.8079 21.0249 23.242 25.459 27.6761 29.8931 32.1102 34.3272 36.5442 37.4775 38.4107 39.344 40.2772 41.2104 42.1437 43.0769 44.0102 46.0134 48.0167 50.0199 52.0232 54.0264 56.0297 58.0329 60.0362 61.9418 63.8475 65.7532 67.6588 69.5645 71.4701 73.3758 75.2814 75.9563 76.6312 77.306 77.9809 78.6558 79.3306 80.0055 80.6804 81.5953 82.5103 83.4252 84.3402 85.2551 86.1701 87.085 88 
25 23.7615 26.3113 25.1936 24.154 22.1539 18.4593 18.9352 18.6667 20.9595 17.8782 18.604 22.0823 22.8286 19.6574 17.6379 21.4578 24.9035 25.7726 28.7758 32.7117 33.8601 37.608 37.8076 37.4775 40.6188 41.4891 40.3571 40.4796 42.9916 44.6699 44.721 44.5106 47.6506 49.0005 51.038 53.6785 55.6227 56.465 57.9274 60.0329 61.7569 63.6011 64.7714 64.431 67.8166 69.6797 71.7508 74.8721 74.7967 77.4875 79.5476 76.9427 77.9584 81.0895 80.6968 81.0957 81.9319 81.5758 83.4193 84.8538 86.0163 86.8194 86.6953 89 
26 28.2875 30.5751 29.394 28.213 23.4945 18.776 19.9597 21.1434 20.0276 18.9118 22.7887 26.6656 23.9134 21.1613 22.6345 24.1076 26.2054 28.3031 33.0252 37.7473 40.4266 43.1059 40.7583 38.4107 41.4891 44.5675 42.6248 40.6821 43.9391 47.1961 46.1036 45.011 47.4976 49.9843 52.659 55.3338 56.1171 56.9003 58.465 60.0297 61.6922 63.3547 62.2789 61.2032 64.5463 67.8894 71.1761 74.4628 76.4033 78.3438 77.1242 75.9046 79.3765 82.8484 82.1798 81.5111 81.0762 80.6414 83.0044 85.3674 86.418 87.4687 88.7343 90 
27 29.1121 31.3703 33.4914 32.2719 29.7332 24.9949 25.8248 23.6201 24.437 24.9381 27.7664 31.2489 29.336 26.8905 28.1263 26.7575 30.7305 33.458 38.1634 42.7829 42.0273 43.5769 39.5351 39.344 41.1159 42.6248 42.183 40.8845 42.3032 45.3728 44.854 45.5114 47.0302 51.1562 52.3932 56.9892 58.7839 58.1171 57.7556 60.0264 59.7953 60.37 57.9533 57.9753 62.0373 66.0426 69.4447 74.0534 75.3369 76.04 76.3618 74.8664 77.8647 80.4668 80.6609 81.9265 81.7958 82.5048 86.086 85.881 86.108 88.333 89.7193 91 
28 30.0827 32.1654 34.2482 36.3309 33.7723 31.2138 28.6553 26.0967 28.5306 30.9644 33.3983 35.8322 34.226 32.6198 31.0135 29.4073 34.0101 38.6129 43.2157 47.8185 45.9332 44.0479 42.1625 40.2772 40.4796 40.6821 40.8845 41.0869 42.3182 43.5494 44.7806 46.0119 49.17 52.3282 55.4863 58.6445 58.9892 59.3338 59.6785 60.0232 58.7043 57.3853 56.0664 54.7475 59.4717 64.1958 68.92 73.6441 73.6902 73.7362 73.7822 73.8283 75.9567 78.0851 80.2135 82.3419 83.355 84.3682 85.3814 86.3945 87.7959 89.1973 90.5986 92 
29 28.7115 32.8574 35.4702 35.7486 37.2956 35.7836 30.3462 28.5734 30.1709 30.5401 32.9315 36.3754 34.6327 33.4555 31.4994 32.0572 36.7474 39.8122 45.1085 46.366 45.8155 43.2178 42.3485 41.2104 41.7836 44.1201 42.1196 42.3182 45.2359 46.1128 45.8454 46.5123 49.682 48.8195 52.8085 57.4863 59.9832 60.4555 60.0289 60.0199 59.3428 59.259 56.9224 57.5628 59.6799 62.3416 66.9338 73.2348 70.2552 70.1906 74.0504 74.8725 76.4107 79.3827 82.222 82.7573 82.348 84.1339 84.0469 87.2963 87.6086 90.4813 90.9649 93 
30 31.7747 33.5493 34.3578 35.1663 37.7599 40.3535 35.7018 31.0501 30.5829 30.1157 33.5172 36.9186 35.605 34.2913 34.4992 34.7071 37.8592 41.0114 42.9625 44.9135 43.6506 42.3876 42.2657 42.1437 44.8509 47.5582 45.5538 43.5494 46.1128 48.6763 47.8445 47.0127 46.1618 45.3108 50.8195 56.3282 58.9526 61.5771 60.7969 60.0167 60.5747 61.1327 60.7553 60.378 60.4327 60.4875 66.6564 72.8254 69.7352 66.6449 71.2808 75.9167 78.2985 80.6804 81.9265 83.1726 83.5361 83.8997 86.0489 88.1981 89.9818 91.7654 92.8827 94 
31 32.2951 33.2751 32.598 34.584 37.0113 37.678 34.8649 33.5267 33.415 33.56 34.4598 37.4619 37.9685 36.6486 36.693 37.3569 40.602 41.0095 42.1734 43.461 43.8809 42.6985 42.8363 43.0769 45.138 46.2846 45.4714 44.7806 46.373 47.8445 47.6185 47.5131 49.8679 48.1618 53.5605 55.17 56.7657 59.2941 58.1673 60.0134 60.7894 62.071 61.6652 63.1932 64.7796 64.7475 67.8168 72.4161 70.248 70.8254 72.7194 76.9609 79.0518 80.8423 81.8375 83.588 84.7486 85.4511 86.112 89.0999 90.0198 92.3831 93.3705 95 
32 32.5004 33.0008 33.5013 34.0017 34.5021 35.0025 35.503 36.0034 36.5038 37.0042 37.5047 38.0051 38.5055 39.0059 39.5064 40.0068 40.5072 41.0076 41.5081 42.0085 42.5089 43.0093 43.5097 44.0102 44.5106 45.011 45.5114 46.0119 46.5123 47.0127 47.5131 48.0136 49.5131 51.0127 52.5123 54.0119 55.5114 57.011 58.5106 60.0102 61.5097 63.0093 64.5089 66.0085 67.5081 69.0076 70.5072 72.0068 73.5064 75.0059 76.5055 78.0051 79.5047 81.0042 82.5038 84.0034 85.503 87.0025 88.5021 90.0017 91.5013 93.0008 94.5004 96 
33 32.0848 31.651 30.6362 34.8529 34.4942 37.3703 37.4807 34.4956 36.0558 34.1996 35.2731 36.5548 38.2208 39.6794 40.1645 42.2935 42.3566 44.1999 42.7518 43.7693 43.073 44.3479 45.7695 47.6486 48.2797 47.8257 47.5037 49.5537 48.2072 47.7194 49.0481 49.5131 49.9187 53.0078 57.0619 61.4949 63.6521 64.2553 66.5634 66.032 66.9219 69.2315 72.9877 72.4967 71.7667 73.39 73.9569 73.3582 76.7596 76.6153 77.6511 78.1581 80.146 82.6258 83.6241 86.8187 88.1474 88.184 88.8855 92.8194 93.1499 95.4113 96.1383 97 
34 32.1506 30.3011 33.0026 35.7041 37.7211 39.7381 36.363 32.9878 32.1914 31.3949 33.2497 35.1044 37.7287 40.3529 42.4666 44.5803 45.9862 47.3921 46.4611 45.53 45.6083 45.6865 48.4868 51.287 50.9637 50.6403 51.8679 53.0955 50.7608 48.4261 49.7194 51.0127 53.0078 55.0028 61.9904 68.9779 70.2387 71.4995 71.7766 72.0537 73.7537 75.4536 77.2193 78.9849 78.3786 77.7723 76.241 74.7097 76.4671 78.2246 78.2679 78.3111 81.2793 84.2474 86.9407 89.6339 89.4997 89.3655 92.5013 95.637 96.7294 97.8218 97.9109 98 
35 33.1352 33.5022 34.0698 36.5554 36.2481 36.7138 33.2351 31.4801 31.3273 31.2415 31.2146 33.6541 35.7112 40.5159 44.7149 46.867 46.7947 48.2474 49.4545 47.2908 48.8452 49.7471 52.8496 54.9255 53.8336 55.0059 55.9001 56.6373 54.23 52.7608 53.5748 52.5123 60.5949 61.9904 69.7577 76.4609 78.5511 77.7601 77.3393 78.0755 79.761 81.7415 84.9548 85.4731 83.0653 81.2296 82.0097 76.0611 74.4221 78.1197 79.2555 78.4642 82.7456 85.5941 88.6287 92.4492 92.5099 93.817 94.6595 98.4547 97.329 99.229 99.1048 99 
36 36.3517 36.7033 37.0549 37.4066 35.548 33.6894 31.8309 29.9723 30.5301 31.088 31.6459 32.2038 36.4413 40.6788 44.9163 49.1538 49.1282 49.1027 49.0771 49.0516 51.4297 53.8077 56.1858 58.5639 58.9677 59.3715 59.7753 60.1791 58.6373 57.0955 55.5537 54.0119 61.4949 68.9779 76.4609 83.944 83.9823 84.0206 84.0589 84.0973 86.0633 88.0293 89.9953 91.9613 88.3241 84.687 81.0498 77.4126 77.7137 78.0149 78.3161 78.6172 82.779 86.9408 91.1026 95.2645 96.7664 98.2684 99.7704 101.272 100.954 100.636 100.318 100 
37 36.77 37.8153 34.9817 36.0476 33.4499 33.6062 31.8935 28.4645 28.819 27.4812 31.5052 34.4331 38.1476 42.5133 45.9539 51.4405 51.9311 52.5666 53.7587 53.216 55.6203 58.5325 60.0199 62.2023 60.1123 59.4399 61.4727 61.7753 60.4728 57.9815 56.0327 55.5114 61.8102 68.7199 75.9139 83.9823 87.1467 87.5037 88.3033 90.1191 91.8464 90.9666 91.0019 92.8463 89.4277 86.3579 82.2988 78.764 80.2968 80.7125 81.1637 82.6309 85.5834 89.8224 93.3981 98.0797 98.4657 99.5468 101.228 102.27 101.911 102.575 100.301 101 
38 38.4637 38.9273 36.808 34.6886 34.1058 33.523 30.2399 26.9567 25.4156 23.8745 30.2684 36.6624 40.5051 44.3479 49.0376 53.7273 54.8789 56.0305 56.7054 57.3804 60.3188 63.2572 64.549 65.8407 62.6745 59.5083 61.4399 63.3715 61.1196 58.8676 57.9393 57.011 62.7364 68.4618 76.2412 84.0206 87.5037 90.9868 93.5638 96.1408 95.0224 93.9039 93.8176 93.7314 90.8801 88.0288 84.0721 80.1155 81.7628 83.4102 85.0274 86.6446 89.6742 92.7039 96.7994 100.895 100.86 100.825 102.046 103.268 103.89 104.513 103.257 102 
39 38.6171 37.4563 33.5913 33.3296 32.4637 30.7395 28.3719 25.4489 25.2062 28.2028 33.8932 38.8917 43.95 47.0294 52.2057 56.014 54.9235 59.0177 60.2228 61.5448 65.6459 66.3353 66.157 69.4792 69.2579 64.6745 65.998 64.9677 64.3186 61.0773 59.8036 58.5106 65.4744 70.2578 76.3053 84.0589 87.9012 93.5638 97.3095 102.163 102.598 97.8734 96.9657 94.6164 92.1044 88.5943 86.1885 81.4669 82.0836 86.0777 89.4544 90.6583 93.3594 96.6513 100.175 103.71 101.257 103.36 104.236 104.265 102.561 104.572 103.295 103 
40 37.9926 35.9853 33.9779 31.9706 29.9632 27.9559 25.9485 23.9412 28.2361 32.5311 36.826 41.121 45.4159 49.7109 54.0058 58.3008 60.1529 62.005 63.8571 65.7092 67.5613 69.4134 71.2655 73.1176 71.4792 69.8407 68.2023 66.5639 64.9255 63.287 61.6486 60.0102 66.032 72.0537 78.0755 84.0973 90.1191 96.1408 102.163 108.184 105.014 101.843 98.6721 95.5014 92.3306 89.1599 85.9891 82.8183 85.7817 88.7451 91.7085 94.6719 97.6353 100.599 103.562 106.526 106.21 105.894 105.578 105.263 104.947 104.631 104.316 104 
41 42.0968 39.0585 39.6256 37.1417 36.3886 34.6618 30.7018 28.7357 32.9778 32.1594 35.149 41.9705 45.4668 48.3692 53.1855 60.5875 62.8457 64.6816 66.5001 67.6095 70.4971 71.845 74.2678 73.2655 70.7709 69.9354 67.4239 65.5606 63.854 63.7803 63.3736 61.5097 65.6472 71.1692 79.4164 82.8689 88.888 97.4366 99.1087 105.014 103.735 100.621 100.028 98.831 93.808 90.5686 86.5853 84.1698 88.3337 92.9957 93.3056 95.2774 97.2184 98.2534 102.822 106.062 106.387 105.79 105.92 105.262 106 107.185 106.235 105 
42 42.0658 42.1316 42.2222 42.3128 41.8402 41.3677 37.449 33.5302 32.659 31.7878 37.304 42.8201 44.9239 47.0276 54.9509 62.8743 65.1162 67.3582 68.434 69.5098 71.8932 74.2766 73.845 73.4134 71.7218 70.0301 67.2937 64.5572 64.4154 64.2736 63.6415 63.0093 66.647 70.2847 75.9626 81.6405 90.1865 98.7324 100.288 101.843 100.621 99.3984 100.78 102.161 97.069 91.9773 88.7493 85.5212 91.3838 97.2463 96.5646 95.8829 95.8954 95.908 100.753 105.598 105.642 105.686 105.474 105.261 107.5 109.738 107.869 106 
43 44.3521 45.2296 46.1347 47.4838 46.9837 44.6274 42.6102 38.3247 37.5032 37.8035 38.5577 43.6697 48.2752 51.5055 59.9179 65.161 66.7962 68.8686 71.5204 71.4101 73.025 73.8932 72.6199 73.5613 71.4291 69.08 65.8209 63.5539 63.8234 64.2766 63.3974 64.5089 66.8238 71.4404 76.9928 80.4122 86.1522 93.0375 96.3129 98.6721 99.6956 100.78 101.623 105.49 102.241 95.2497 90.4692 86.8727 90.8123 94.9527 95.8986 96.4884 98.5543 98.395 101.921 105.134 105.804 105.326 104.797 105.261 105.826 108.184 108.079 107 
44 46.1637 48.3275 50.4912 52.6549 50.271 47.8871 45.5032 43.1193 43.4693 43.8193 44.1693 44.5193 50.2514 55.9835 61.7156 67.4478 68.9134 70.3791 71.8448 73.3104 73.4101 73.5098 73.6095 73.7092 70.9195 68.1299 65.3402 62.5506 63.4151 64.2795 65.144 66.0085 69.3023 72.5961 75.89 79.1838 83.2632 87.3426 91.422 95.5014 98.831 102.161 105.49 108.82 103.671 98.522 93.3731 88.2241 90.4416 92.659 94.8764 97.0939 98.988 100.882 102.776 104.67 104.818 104.965 105.113 105.26 105.945 106.63 107.315 108 
45 49.0639 50.8187 51.5935 53.2784 50.5072 49.4873 51.094 47.9138 47.601 47.9335 47.7116 50.751 56.2188 61.5661 63.2065 69.7345 69.9967 69.5293 70.2811 73.8448 77.0945 78.3981 76.607 73.8571 72.3317 70.1594 67.4769 65.2014 65.1956 65.9638 66.5451 67.5081 72.045 74.8925 74.8162 78.741 80.99 83.2983 88.2092 92.3306 94.9437 96.7599 100.771 103.671 100.529 98.3978 94.4028 89.5756 92.1733 92.6215 94.626 97.376 99.0548 97.4601 101.989 104.206 104.604 104.187 105.21 105.797 106.128 105.255 109.647 109 
46 49.655 53.31 53.6059 53.9018 52.4946 51.0874 51.8979 52.7083 52.3781 52.0478 54.5152 56.9827 62.0657 67.1487 69.585 72.0213 70.3504 68.6795 71.5293 74.3791 78.8328 83.2865 78.6457 74.005 73.0969 72.1889 70.0206 67.8522 67.7501 67.6481 68.3279 69.0076 73.0982 77.1888 77.7435 78.2982 78.7761 79.2541 84.207 89.1599 90.2595 91.3592 94.9406 98.522 98.3978 98.2737 94.6003 90.927 91.7556 92.5841 95.1211 97.6581 95.8481 94.0381 98.8904 103.743 103.576 103.409 104.871 106.334 105.107 103.881 106.94 110 
47 50.8337 52.4422 52.5334 54.5253 54.9337 54.9052 56.4997 57.5028 58.8936 58.9598 57.6364 63.2144 67.0436 70.0845 71.5628 74.308 73.1577 72.3504 74.5026 74.9134 77.2477 79.0804 77.9995 74.1529 73.9249 72.9581 71.4364 70.503 71.7473 70.1142 68.4769 70.5072 73.4115 75.9492 77.2627 77.8554 77.4062 79.6848 84.6157 85.9891 87.0429 88.4402 90.1548 93.3731 93.1982 94.6003 95.0392 92.2785 94.279 94.2551 95.2001 97.9403 97.3987 97.2784 100.932 103.279 102.493 104.26 106.205 106.871 105.6 106.792 108.857 111 
48 49.7872 51.5743 53.3615 55.1487 56.9359 58.723 60.5102 62.2974 64.0845 65.8717 67.6589 69.4461 71.2332 73.0204 74.8076 76.5947 76.308 76.0213 75.7345 75.4478 75.161 74.8743 74.5875 74.3008 74.014 73.7273 73.4405 73.1538 72.867 72.5803 72.2935 72.0068 73.3582 74.7097 76.0611 77.4126 78.764 80.1155 81.4669 82.8183 84.1698 85.5212 86.8727 88.2241 89.5756 90.927 92.2785 93.6299 94.778 95.9262 97.0743 98.2224 99.3706 100.519 101.667 102.815 103.963 105.111 106.259 107.407 108.556 109.704 110.852 112 
49 49.8619 46.9962 51.0532 53.6529 55.2178 57.1329 59.4163 60.095 61.7296 66.1447 69.7111 70.8094 72.0577 75.9862 75.7451 76.8076 77.6344 77.3095 76.7033 76.1665 76.6417 78.2874 81.2744 80.4584 78.4098 76.0282 73.0776 71.0414 72.6424 71.8573 71.3862 73.5064 75.5338 77.9921 77.7648 81.4715 82.0684 80.0753 82.6992 82.9041 85.2222 83.8009 85.2956 87.5751 90.3083 92.6264 94.4717 94.778 99.2399 100.596 101.076 102.891 103.885 102.148 102.877 102.899 104.263 102.907 107.042 107.407 108.745 109.773 112.173 113 
50 46.209 42.418 47.2875 52.1571 53.8499 55.5427 56.7176 57.8926 62.1552 66.4177 69.2952 72.1727 75.5624 78.952 77.9862 77.0204 77.8091 78.5978 77.7416 76.8853 79.293 81.7006 84.1583 86.616 82.4726 78.3292 73.6291 68.9291 70.0316 71.1342 73.0701 75.0059 78.1402 81.2745 83.4024 85.5304 82.7828 80.0352 81.5126 82.9899 82.5352 82.0806 84.5033 86.926 90.6259 94.3259 95.126 95.9262 100.596 105.265 106.412 107.559 105.668 103.778 103.381 102.983 101.843 100.702 104.054 107.406 108.624 109.843 111.921 114 
51 48.7102 46.5004 47.941 50.6613 52.9723 53.4347 55.0637 55.6902 58.9401 65.3056 70.1826 73.536 76.6606 77.5624 78.1036 77.2332 77.5123 78.2411 77.7909 77.6041 80.3464 85.1638 88.962 92.7736 87.8083 80.0735 74.5685 66.8167 69.2228 71.2445 72.336 76.5055 79.2458 83.5506 86.5058 89.5893 87.6393 84.22 82.7594 83.0757 82.1628 83.2376 82.9347 86.277 89.5842 93.1255 97.3326 97.0743 101.323 106.412 109.693 112.228 109.704 106.901 103.764 103.068 103.569 102.99 105.97 107.405 109.667 110.772 113.56 115 
52 51.2914 50.5828 49.8742 49.1655 50.2461 51.3267 52.4072 53.4878 58.8407 64.1935 69.5464 74.8993 75.536 76.1727 76.8094 77.4461 77.6653 77.8845 78.1037 78.3229 83.475 88.6271 93.7791 98.9312 90.3745 81.8178 73.2611 64.7043 68.0295 71.3547 74.6799 78.0051 81.9158 85.8266 89.7374 93.6482 91.0265 88.4048 85.7831 83.1614 83.7781 84.3947 85.0113 85.6279 88.7766 91.9252 95.0738 98.2224 102.891 107.559 112.228 116.896 113.46 110.024 106.588 103.152 104.215 105.278 106.341 107.404 109.553 111.702 113.851 116 
53 54.2518 51.1281 49.6593 49.4589 50.1617 49.5395 50.9113 51.2854 54.3923 59.2321 64.2608 71.5464 72.4256 72.8874 75.2287 77.6589 82.2955 83.7141 83.2124 83.9746 89.2409 93.9955 101.483 105.089 97.2064 89.5091 81.5586 74.4739 76.1808 79.1602 79.2608 79.5047 84.1079 87.6002 89.8757 91.1746 87.7644 86.9067 85.6002 83.2472 83.8979 83.6914 84.4657 87.5109 89.8054 92.957 96.6634 99.3706 104.639 109.235 112.392 113.46 108.775 107.01 105.913 103.236 104.576 106.27 107.99 108.489 109.534 112.942 115.307 117 
54 52.8368 51.6735 50.7129 49.7523 48.7524 47.7524 48.4177 49.083 51.6769 54.2707 61.2321 68.1935 68.8978 69.6021 73.7369 77.8717 83.7077 89.5437 89.585 89.6262 94.4951 99.364 105.305 111.246 104.223 97.2004 90.7219 84.2434 85.6046 86.9658 83.985 81.0042 85.189 89.3737 89.0374 88.701 87.0548 85.4086 84.3708 83.333 83.1605 82.9881 86.191 89.3938 91.6913 93.9887 97.2537 100.519 105.715 110.911 110.467 110.024 107.01 103.996 103.658 103.32 105.291 107.262 108.418 109.574 111.878 114.183 116.091 118 
55 53.2956 52.4215 52.5156 50.0457 48.4959 47.6305 46.3252 46.8806 51.8859 53.6769 58.144 64.8407 67.8613 69.7473 74.7752 78.0845 84.4146 89.5786 91.9779 95.2779 100.867 105.805 109.93 117.404 111.248 105.436 103.478 94.013 91.0565 90.4294 87.6064 82.5038 83.1775 86.6262 87.6098 86.2275 85.5384 84.5189 84.2119 83.4187 85.3874 85.6601 89.0942 91.2768 92.9003 95.988 95.937 101.667 105.086 106.947 107.665 106.588 105.628 103.658 103.447 103.404 104.167 107.439 108.631 110.659 114.21 115.027 115.62 119 
56 54.5848 53.1695 51.7543 50.3391 48.9239 47.5086 46.0934 44.6782 48.8806 53.083 57.2854 61.4878 65.6902 69.8926 74.095 78.2974 83.9554 89.6134 95.2715 100.93 106.588 112.246 117.904 123.562 118.617 113.672 108.727 103.783 98.8377 93.893 88.9482 84.0034 83.941 83.8787 83.8163 83.754 83.6916 83.6292 83.5669 83.5045 85.9183 88.3321 90.7459 93.1597 95.5735 97.9874 100.401 102.815 102.899 102.983 103.068 103.152 103.236 103.32 103.404 103.489 105.553 107.616 109.68 111.744 113.808 115.872 117.936 120 
57 55.5153 53.9098 54.8615 52.3009 51.9323 50.1037 49.0854 48.0934 53.0433 55.6087 57.4166 61.8397 65.3521 68.232 71.96 78.5102 84.7306 90.2548 94.7148 100.192 105.463 109.079 116.091 119.116 118.333 113.982 107.097 102.38 95.8957 94.2185 90.2315 85.503 82.7316 82.7798 83.8401 84.5852 82.9089 83.333 85.1982 86.0665 88.0066 91.7374 94.9199 94.6221 95.966 96.5408 100.074 103.963 104.501 102.496 102.738 105.367 104.354 104.111 104.732 105.553 107.253 112.061 114.252 115.01 116.37 118.091 118.269 121 
58 56.325 54.65 54.4563 54.2626 53.4807 52.6988 52.1037 51.5086 54.8216 58.1345 60.163 62.1916 64.3815 66.5714 72.6472 78.723 84.8096 90.8961 95.1755 99.4548 102.683 105.911 110.291 114.671 114.482 114.292 107.634 100.977 97.7605 94.5441 90.7733 87.0025 84.3417 81.6808 83.5486 85.4164 84.2266 83.0369 85.8326 88.6284 91.8856 95.1427 95.6136 96.0845 95.5894 95.0943 100.103 105.111 103.56 102.009 104.795 107.582 106.241 104.901 106.259 107.616 112.061 116.505 117.39 118.276 119.293 120.311 121.155 122 
59 56.9625 56.8715 55.4049 56.2244 55.8429 55.4807 56.0555 54.9239 57.4754 59.3759 58.9803 62.5435 65.4767 68.7967 71.3096 78.9359 84.5667 89.7302 95.7271 98.7174 101.407 103.896 106.443 110.226 107.228 108.134 104.662 99.574 97.0455 94.3152 92.0077 88.5021 87.439 85.1105 88.0657 86.2476 87.9054 86.7262 89.43 91.1903 94.8245 95.7617 95.1758 97.5469 97.9723 99.1513 99.7647 106.259 108.535 105.859 106.961 109.796 111.438 108.389 108.843 109.68 114.88 117.39 120.022 121.541 122.942 122.357 122.489 123 
60 59.5465 59.0931 58.6396 58.1862 58.2244 58.2626 58.3009 58.3391 59.4782 60.6173 61.7563 62.8954 66.9587 71.022 75.0854 79.1487 83.8565 88.5644 93.2722 97.9801 99.9303 101.88 103.831 105.781 103.878 101.976 100.074 98.1712 96.1288 94.0864 92.0441 90.0017 89.271 88.5403 87.8095 87.0788 88.7472 90.4155 92.0839 93.7523 95.0665 96.3807 97.695 99.0092 101.109 103.208 105.308 107.407 108.558 109.709 110.86 112.011 111.945 111.878 111.811 111.744 115.01 118.276 121.541 124.807 124.605 124.404 124.202 124 
61 62.1936 63.0871 61.8382 60.6396 61.052 60.0196 60.9366 61.7543 61.564 63.1185 64.5847 66.1716 69.7541 72.6329 75.1185 79.3615 83.3618 88.7471 90.0896 94.4851 95.3502 96.2808 97.876 101.336 101.463 100.011 96.0295 96.6284 97.6381 95.3591 91.6075 91.5013 92.8793 96.8214 94.9741 90.3091 91.5124 93.5868 95.492 96.3142 98.4812 99.0898 100.229 101.257 102.453 103.213 106.834 108.556 108.778 109.476 108.98 113.008 113.389 113.695 112.865 113.808 120.056 121.11 124.501 124.605 125.891 126.632 125.979 125 
62 64.5405 67.081 65.0871 63.0931 62.4348 61.7766 63.4731 65.1695 65.3947 65.6198 67.5338 69.4477 71.8457 74.2437 76.909 79.5743 84.2521 88.9299 89.96 90.99 90.8356 90.6811 93.7858 96.8904 97.4679 98.0454 96.5655 95.0856 95.8586 96.6317 94.8163 93.0008 99.0517 105.103 99.321 93.5394 95.1487 96.758 97.817 98.8761 100.337 101.799 102.652 103.505 103.361 103.217 106.46 109.704 109.474 109.243 111.624 114.006 114.759 115.513 115.693 115.872 119.908 123.944 124.174 124.404 126.632 128.86 127.43 126 
63 65.8863 66.5405 65.5883 65.5465 65.9803 65.8883 67.7573 68.5848 68.5677 69.8099 70.646 72.7239 75.5611 76.1219 77.3186 79.7872 81.9031 85.4649 87.6272 87.495 87.0866 88.3405 90.5032 92.4452 93.9982 94.0227 93.4757 93.5428 95.0008 95.3158 95.3226 94.5004 98.0951 101.551 98.5028 96.7697 96.4726 99.379 101.371 101.438 102.928 103.899 104.61 105.752 107.141 106.608 108.205 110.852 112.61 111.622 113.644 115.003 115.305 116.757 116.163 117.936 122.102 122.972 122.973 124.202 124.518 127.43 126.812 127 
64 65 66 67 68 69 70 71 72 73 74 75 76 77 78 79 80 81 82 83 84 85 86 87 88 89 90 91 92 93 94 95 96 97 98 99 100 101 102 103 104 105 106 107 108 109 110 111 112 113 114 115 116 117 118 119 120 121 122 123 124 125 126 127 128 
