ncols 33
nrows 33
xllcorner 0
yllcorner 0
cellsize 10
0 1 2 3 4 5 6 7 8 9 10 11 12 13 14 15 16 17 18 19 20 21 22 23 24 25 26 27 28 29 30 31 32 
1 4.56873 6.23033 3.76333 3.25507 2.46862 4.52007 2.88453 6.91581 6.99158 9.94749 8.601 11.4202 11.1997 15.3376 17.2713 16.5084 17.8002 20.2514 21.978 21.0975 21.816 21.6889 22.8789 26.6458 28.9041 28.5067 29.1008 29.7718 27.5257 27.9698 29.1561 33 
2 6.23033 10.4607 6.4854 2.51014 2.77514 3.04014 4.43588 5.83162 7.8633 9.89498 10.3677 10.8404 13.7578 16.6751 16.8459 17.0167 19.7598 22.5028 22.3489 22.1951 21.7864 21.3778 25.3347 29.2915 30.1524 31.0133 31.2785 31.5437 28.7417 25.9396 29.9698 34 
3 5.68302 6.4854 3.98695 1.76521 1.86704 2.69095 5.6131 4.74743 6.02793 8.2835 9.06387 10.2606 12.4123 15.2661 15.179 17.5251 18.8525 21.8573 23.3512 23.2926 23.9308 25.4322 26.9639 31.9373 31.321 32.9243 33.9881 33.3155 32.0126 30.7417 32.2446 35 
4 3.25507 2.51014 1.76521 1.02027 1.68101 2.34175 3.00249 3.66323 5.16763 6.67202 8.17642 9.68081 11.769 13.8571 15.9453 18.0334 19.6226 21.2118 22.8009 24.3901 26.9384 29.4866 32.0348 34.5831 34.7091 34.8352 34.9613 35.0874 35.3155 35.5437 35.7718 36 
5 3.87658 4.37591 2.71772 1.68101 1.76035 1.23659 1.16734 2.57904 2.68033 6.20356 8.69927 9.68477 9.62744 12.0293 16.2406 18.5418 20.7607 20.5737 22.0993 26.4467 29.1264 32.6726 33.4649 37.2288 39.0133 37.5288 37.5477 36.9613 36.7032 38.0007 37.5451 37 
6 6.12084 6.24168 4.29172 2.34175 1.23659 0.131424 0.813137 1.49485 3.61498 5.7351 7.71192 9.68873 9.94516 10.2016 14.6259 19.0501 19.4929 19.9357 24.2195 28.5033 32.1809 35.8586 37.8666 39.8746 40.0485 40.2224 39.5288 38.8352 39.6464 40.4577 39.2288 38 
7 6.72682 6.03665 4.29696 3.00249 2.0527 0.813137 2.75702 0.410658 2.00103 5.12333 5.35946 9.69269 12.6751 12.5417 18.2922 19.5585 21.2087 23.1387 26.4065 30.5599 33.2824 37.3749 39.2367 42.5204 41.3049 42.0485 43.0703 40.7091 40.4516 40.8746 39.7877 39 
8 6.91581 5.83162 4.74743 3.66323 2.57904 1.49485 0.410658 -0.673533 1.91901 4.51156 7.1041 9.69665 12.2892 14.8817 17.4743 20.0668 23.2042 26.3417 29.4791 32.6165 35.7539 38.8913 42.0287 45.1662 44.5204 43.8746 43.2288 42.5831 41.9373 41.2915 40.6458 40 
9 7.58943 8.92838 8.07535 4.93497 4.48434 3.7067 2.88536 1.91901 4.63875 6.35052 6.05181 8.62756 12.7798 15.0911 18.5326 20.5752 23.773 25.9309 29.4956 33.3347 37.4235 38.5994 41.217 44.0287 42.2677 42.6852 41.0521 40.1354 38.8861 40.4588 40.4407 41 
10 11.0126 12.0251 9.11592 6.2067 6.06262 5.91855 5.21505 4.51156 6.35052 8.18949 7.87399 7.55848 11.4294 15.3004 18.192 21.0835 23.3018 25.52 29.7865 34.053 36.1802 38.3074 40.5994 42.8913 42.1936 41.4958 39.5918 37.6878 38.6569 39.626 40.813 42 
11 11.1914 11.2001 10.2145 7.47843 8.10087 7.57098 6.87747 7.1041 7.0417 7.87399 6.61444 6.48939 10.7425 14.5303 18.9682 21.5919 25.4122 27.1574 30.2556 34.7712 35.4275 38.1802 40.4987 41.7539 40.3357 39.1002 37.4244 35.2402 36.63 39.0111 40.3995 43 
12 11.1875 10.3751 9.56262 8.75016 8.98679 9.22341 9.46003 9.69665 8.62756 7.55848 6.48939 5.42031 9.59029 13.7603 17.9303 22.1002 25.4475 28.7948 32.1421 35.4894 36.7712 38.053 39.3347 40.6165 38.6605 36.7045 34.7485 32.7925 35.5944 38.3963 41.1981 44 
13 14.327 17.4367 12.2897 11.071 12.2103 12.3634 11.1472 12.2892 9.02424 8.57804 9.02736 9.59029 12.9087 13.3367 21.199 22.6086 28.0409 29.3829 32.6718 34.1421 34.0162 36.083 37.5716 39.4791 41.009 38.5045 36.0561 35.1028 37.3756 37.3594 42.9879 45 
14 19.2492 24.4984 18.9451 13.3918 14.4476 15.5034 15.1926 14.8817 12.2397 9.5976 11.6789 13.7603 13.3367 12.9132 18.0151 23.117 26.544 29.971 31.3829 32.7948 33.454 34.1131 36.2274 38.3417 39.3231 40.3046 38.8588 37.413 36.8677 36.3225 41.1613 46 
15 16.634 20.7575 18.6475 15.7126 14.8295 17.2768 15.4291 17.4743 17.0468 15.3406 16.2439 17.9303 19.4886 18.0151 20.4514 23.6253 25.3646 28.544 30.1433 31.4475 33.3231 33.5983 36.5398 37.2042 39.5174 39.6773 40.2684 39.7232 40.4544 40.6696 44.2937 47 
16 16.5084 17.0167 17.5251 18.0334 18.5418 19.0501 19.5585 20.0668 20.5752 21.0835 21.5919 22.1002 22.6086 23.117 23.6253 24.1337 25.6253 27.117 28.6086 30.1002 31.5919 33.0835 34.5752 36.0668 37.5585 39.0501 40.5418 42.0334 43.5251 45.0167 46.5084 48 
17 17.5546 21.1112 19.8255 19.7774 22.1584 22.107 24.2676 23.7714 27.0253 24.8906 26.067 25.4151 25.048 26.514 25.5403 25.6253 27.4778 27.4018 28.8179 31.7776 32.0888 30.9156 33.2597 36.7318 36.3077 37.4479 40.2369 43.1126 44.184 48.3476 49.5525 49 
18 21.6029 25.2057 23.3636 21.5214 23.3427 25.1639 26.3199 27.4759 28.0868 28.6978 28.7139 28.73 29.3205 29.9111 28.514 27.117 27.4018 27.6867 30.5709 33.4551 31.1014 28.7478 33.0723 37.3967 36.6212 35.8457 40.0188 44.1918 47.9352 51.6785 50.8393 50 
19 20.8594 23.8552 24.1008 23.2654 24.0458 27.5556 29.8948 31.1805 32.6906 31.9101 29.6091 32.0449 32.1814 31.3205 30.4582 28.6086 30.5178 30.5709 31.1463 35.1325 34.8143 33.258 35.1009 38.0617 39.1544 39.1921 43.6577 45.271 47.5375 50.4268 50.2482 51 
20 21.2523 22.5047 23.757 25.0094 27.4783 29.9472 32.4161 34.885 35.0037 35.1224 35.2411 35.3598 34.0449 32.73 31.4151 30.1002 31.7776 33.4551 35.1325 36.8099 37.2891 37.7683 38.2474 38.7266 40.6325 42.5384 44.4443 46.3502 47.7627 49.1751 50.5876 52 
21 25.2314 25.8603 27.1194 27.9699 30.344 35.0519 36.8624 38.5896 37.973 37.1079 36.6966 37.2411 36.9261 33.3514 32.6247 31.5919 34.3545 34.7929 37.3803 37.2891 36.979 38.6104 40.7122 39.3916 38.6697 40.481 42.3786 46.936 48.0419 52.1623 54.0072 53 
22 25.608 29.2159 30.0732 30.9305 35.5435 40.1566 41.2253 42.2941 40.6938 39.0935 39.1079 39.1224 36.5476 33.9727 33.5281 33.0835 34.6071 36.1307 36.9495 37.7683 38.6104 39.4526 39.7546 40.0565 39.24 38.4235 42.9726 47.5217 51.3356 55.1495 54.5748 54 
23 27.3549 29.8209 33.0137 33.8911 38.6499 41.717 45.5827 45.9987 45.079 42.6938 40.864 41.0037 38.392 36.7243 35.7932 34.5752 36.1977 36.7637 36.8788 38.2474 37.7969 39.7546 38.2993 40.7215 43.0224 41.7317 46.5216 48.1075 50.2815 53.7481 55.9596 55 
24 27.2129 30.4258 33.6387 36.8516 40.0645 43.2774 46.4903 49.7032 47.9987 46.2941 44.5896 42.885 41.1805 39.4759 37.7714 36.0668 36.7318 37.3967 38.0617 38.7266 39.3916 40.0565 40.7215 41.3864 43.2131 45.0398 46.8665 48.6932 50.5199 52.3466 54.1733 56 
25 29.7284 32.1444 31.8334 35.3106 37.8909 44.406 47.2955 48.4903 46.0027 46.8436 46.9757 41.7339 39.0363 39.1556 40.3158 37.5585 38.0969 40.385 40.306 37.6502 40.7487 40.496 40.5548 43.2131 46.3673 46.174 49.2308 50.0166 53.5336 54.1508 55.9923 57 
26 29.9315 33.863 33.8164 33.7697 39.6521 45.5346 46.406 47.2774 47.3352 47.393 43.9878 40.5827 39.709 38.8353 38.9427 39.0501 41.2117 43.3732 39.9734 36.5737 38.7546 40.9355 42.9877 45.0398 46.174 47.3081 49.3241 51.34 53.6475 55.955 56.9775 58 
27 29.2626 31.6035 31.843 32.2287 37.3126 41.6521 44.9581 46.0645 43.8958 44.4795 42.1134 39.4316 36.5441 39.4961 40.2852 40.5418 40.2046 40.8001 38.7714 35.4973 38.6366 41.2463 42.9038 46.8665 47.468 49.3241 51.1253 52.6634 54.6995 56.4742 56.9116 59 
28 28.6719 29.3439 30.0158 30.6877 34.2287 37.7697 41.3106 44.8516 43.2088 41.566 39.9232 38.2804 39.2187 40.1569 41.0952 42.0334 40.1303 38.2271 36.324 34.4208 37.9889 41.557 45.1251 48.6932 50.0166 51.34 52.6634 53.9868 55.4901 56.9934 58.4967 60 
29 31.214 32.7839 30.1826 32.0158 36.338 35.83 41.2638 43.6387 42.3438 43.628 42.2833 39.7103 39.3685 40.041 41.5003 43.5251 41.3041 38.2823 39.3617 38.8156 41.315 44.575 48.571 50.5199 52.8919 52.1228 52.9248 55.4901 57.9534 58.1532 60.5971 61 
30 33.112 36.2239 34.7839 33.3438 33.6171 33.8903 38.1581 42.4258 44.0579 45.69 43.4151 41.1402 40.5327 39.9252 42.4709 45.0167 41.6771 38.3375 40.7739 43.2104 45.4017 47.5929 49.9698 52.3466 52.6261 52.9055 54.9495 56.9934 58.1532 59.3131 60.6565 62 
31 34.2232 35.112 35.0495 34.6719 33.4763 35.9452 39.4593 41.2129 42.0028 43.845 43.0792 42.5701 41.5094 42.9626 45.6487 46.5084 47.358 44.1687 47.3057 47.6052 49.3353 50.7965 53.286 54.1733 53.7135 55.4528 57.4319 58.4967 59.1095 60.6565 61.8887 63 
32 33 34 35 36 37 38 39 40 41 42 43 44 45 46 47 48 49 50 51 52 53 54 55 56 57 58 59 60 61 62 63 64 
